ply
format ascii 1.0
comment VCGLIB generated
element vertex 879
property float x
property float y
property float z
property uchar red
property uchar green
property uchar blue
element face 0
property list uchar int vertex_indices
end_header
-0.0874 0.1042 -0.0974                     102 109 117 
0.3425 0.0551 0.1666                     92 98 106 
-0.2164 0.2762 -0.0483                     114 120 129 
-0.0199 0.1104 -0.1281                     101 107 115 
0.3240 -0.3072 0.1728                     136 110 87 
-0.1795 -0.3564 0.1543                     123 96 71 
-0.1550 -0.1537 0.1605                     134 107 81 
0.0600 0.0551 -0.1834                     74 77 82 
0.0538 0.1042 0.1175                     105 112 120 
0.0047 0.1104 0.0315                     102 108 117 
-0.1980 0.3315 -0.0545                     109 116 124 
0.2012 0.0551 -0.1589                     84 89 95 
0.3363 -0.1967 0.1912                     135 109 82 
0.3118 0.0551 -0.1527                     91 95 101 
0.0722 0.0490 0.1728                     85 90 97 
-0.0997 0.1042 -0.1343                     104 110 119 
0.3547 0.0858 0.1114                     114 121 130 
0.3118 0.0551 -0.2264                     84 88 95 
0.3302 -0.0616 0.1482                     143 115 87 
0.0108 -0.0309 -0.0360                     132 112 93 
-0.2164 0.3008 -0.1220                     112 118 127 
0.3547 -0.5590 0.2035                     145 119 93 
0.3486 0.0920 -0.0483                     113 119 128 
0.2872 0.0551 0.0684                     81 84 90 
-0.1366 0.2762 -0.2940                     106 113 121 
-0.0629 0.1104 -0.1404                     104 110 119 
0.3425 0.0981 -0.2141                     109 114 122 
-0.0997 0.1042 0.0929                     100 106 114 
-0.0322 0.0183 0.0192                     77 80 87 
0.2565 0.1042 -0.2817                     107 114 123 
-0.1857 0.2762 -0.1159                     109 116 124 
0.2135 0.1104 0.0438                     106 112 119 
0.1030 0.1042 -0.2694                     103 109 118 
-0.1427 -0.1168 0.1359                     133 105 77 
-0.1857 -0.3011 0.2035                     135 108 82 
0.1705 0.1042 0.1605                     104 110 119 
0.1828 0.1104 0.0192                     110 118 125 
-0.0383 -0.0370 -0.1281                     129 107 85 
-0.1795 0.3437 0.2158                     106 111 119 
0.1091 -0.0186 -0.0422                     115 90 71 
-0.1857 0.2885 -0.2694                     111 117 126 
0.3363 0.0551 0.0315                     95 101 107 
-0.0874 -0.0063 0.0192                     143 131 125 
0.2933 0.0551 -0.1650                     84 87 93 
0.0293 -0.0309 -0.0483                     126 104 87 
-0.0260 -0.0247 -0.1466                     121 99 78 
0.1459 0.0551 0.1052                     78 81 88 
0.3302 -0.3011 0.1912                     135 108 81 
-0.1304 -0.0493 -0.2203                     131 115 104 
0.3302 -0.4423 -0.2817                     136 107 80 
-0.1734 -0.1967 0.1728                     137 111 88 
0.2995 0.1042 -0.1711                     103 110 118 
-0.0014 0.1104 -0.0852                     96 101 109 
0.0170 0.0490 0.1789                     86 91 98 
-0.1918 0.2516 -0.0176                     82 88 96 
-0.1673 0.2885 0.2158                     107 114 122 
0.1275 0.1042 -0.2633                     104 111 119 
0.3240 0.0551 -0.0606                     89 94 102 
0.3486 0.0858 0.2158                     112 119 128 
0.3425 -0.5529 -0.2878                     135 107 80 
-0.0751 0.0244 -0.2817                     93 97 103 
-0.0997 0.0551 -0.2633                     94 99 107 
-0.0260 0.0428 0.2403                     105 111 118 
-0.0997 0.0551 -0.2878                     114 120 129 
-0.1120 0.0490 -0.0360                     79 85 92 
0.3486 -0.1537 0.1543                     144 119 93 
0.1705 0.0858 0.2403                     102 108 117 
-0.1304 -0.0124 0.1236                     127 102 77 
0.2995 -0.0677 0.1728                     129 103 78 
0.3547 0.0735 0.0807                     112 119 128 
0.1828 0.0367 0.0254                     102 81 65 
0.3425 -0.4608 0.1973                     141 115 87 
-0.1734 0.2946 0.1236                     100 107 117 
-0.1304 0.1042 -0.2141                     104 111 119 
0.0108 0.1104 -0.1036                     101 106 114 
-0.2041 0.3683 0.0315                     113 119 128 
-0.1980 0.3437 -0.1711                     109 114 122 
0.1030 0.0981 -0.2940                     108 114 122 
0.1091 0.1104 -0.0790                     104 110 119 
-0.1673 -0.2888 -0.2694                     134 107 81 
-0.1243 0.0797 0.1605                     113 121 129 
0.1766 0.1104 -0.1589                     104 109 117 
-0.0936 0.0244 -0.2633                     94 100 107 
-0.1243 0.2209 0.1789                     97 102 110 
-0.1366 0.0183 0.1114                     136 110 85 
-0.0260 0.1104 -0.0913                     100 105 115 
0.0845 0.1104 -0.1097                     104 109 116 
0.0170 0.0920 0.1912                     100 106 114 
0.3179 0.0551 -0.0545                     91 96 103 
0.3486 -0.2335 0.1666                     146 119 90 
-0.0260 0.0981 0.1605                     95 101 109 
0.0170 0.1104 -0.2448                     97 103 113 
0.0907 0.0551 -0.2080                     78 83 89 
-0.0567 0.0121 0.0499                     76 79 85 
-0.1918 0.3990 0.1912                     105 111 119 
-0.0997 0.0674 -0.2755                     98 105 115 
0.1091 -0.0186 -0.0360                     118 92 72 
-0.1181 0.0490 -0.0053                     82 88 94 
0.2565 0.1104 -0.2264                     110 117 126 
-0.0199 0.0490 0.0315                     66 71 77 
-0.0383 0.1042 0.0377                     106 113 122 
-0.1795 0.3683 -0.2325                     109 114 123 
0.2012 0.0490 0.2342                     89 94 101 
-0.1795 0.3192 -0.2264                     110 117 126 
-0.1857 0.2823 -0.1589                     111 118 127 
-0.2287 0.3376 0.0192                     111 117 124 
0.0231 0.1104 -0.0422                     100 106 116 
-0.1673 0.3376 0.2219                     109 115 123 
0.2749 0.0612 0.2587                     109 117 125 
0.1152 0.0060 -0.1220                     136 125 119 
-0.0629 0.0551 0.1912                     19 20 22 
-0.1427 0.0612 0.1236                     115 120 129 
0.0600 0.0858 0.2158                     109 116 124 
-0.2225 0.3192 0.0561                     114 120 128 
0.0784 0.0551 -0.2510                     81 86 94 
0.1398 -0.0186 0.0192                     113 93 75 
0.1030 -0.0124 -0.0606                     61 47 37 
-0.1058 0.0244 0.0929                     90 72 58 
-0.1058 0.1042 -0.0606                     99 106 115 
-0.1980 0.2455 0.0929                     89 95 102 
0.2319 0.0244 0.0622                     115 92 72 
-0.1366 -0.0063 0.0868                     127 107 93 
-0.1366 0.3499 0.2403                     97 103 111 
-0.0751 0.1104 -0.0299                     100 106 116 
-0.0813 0.0367 0.2465                     100 106 113 
-0.2041 0.3560 -0.1466                     112 120 128 
0.1521 0.1104 -0.0115                     102 109 118 
-0.0260 0.0490 -0.3001                     101 107 117 
0.0170 0.1104 -0.2264                     102 109 118 
-0.0997 0.1718 -0.3001                     107 113 120 
0.2319 0.1042 -0.0360                     106 113 121 
0.1889 0.0305 0.0315                     104 84 66 
-0.1918 -0.3256 -0.2633                     133 107 82 
-0.1611 -0.1230 0.1175                     152 137 127 
-0.1918 0.3069 -0.1281                     113 121 129 
-0.1611 -0.0554 -0.2448                     159 144 135 
0.0538 0.1042 -0.2571                     102 107 116 
0.3363 0.0735 0.2649                     105 112 119 
0.0538 0.0490 0.1052                     83 88 95 
0.1828 0.0981 0.2158                     106 113 121 
0.3486 0.0920 -0.2203                     112 118 126 
-0.2287 0.3499 0.0131                     123 131 138 
-0.2225 0.3192 0.0377                     114 120 127 
-0.1181 0.2578 0.1728                     94 101 110 
0.1398 -0.0186 0.0070                     115 95 78 
0.2810 -0.0616 -0.2571                     133 107 81 
0.2626 0.1042 0.0315                     105 111 120 
-0.1366 0.3008 0.1666                     93 98 107 
0.2810 0.0551 -0.2203                     83 87 91 
0.1644 0.0551 -0.0176                     75 78 84 
0.2995 -0.0370 -0.2448                     120 93 69 
-0.1488 -0.1414 -0.2571                     142 117 91 
0.2381 -0.0063 -0.2387                     142 129 122 
0.3425 0.0551 0.0131                     97 103 110 
-0.1673 -0.3256 -0.2633                     142 119 98 
-0.1857 0.2578 -0.1773                     104 111 120 
0.1521 0.1104 0.0807                     102 107 116 
-0.0260 0.0490 -0.3062                     101 107 117 
0.3363 -0.3871 -0.2694                     134 107 81 
0.2012 0.1104 0.0070                     104 111 120 
-0.1181 0.0244 0.0684                     144 131 125 
-0.1366 0.3069 -0.2940                     111 117 125 
0.3118 -0.1721 0.1543                     138 120 107 
0.3179 -0.0677 0.1298                     130 104 79 
0.3302 0.1042 -0.2571                     107 113 122 
0.3363 -0.0923 -0.2571                     149 121 93 
0.2196 0.0551 -0.2817                     88 91 98 
-0.1795 -0.3993 -0.2694                     142 123 109 
-0.1673 0.3253 0.2219                     100 105 113 
-0.0997 0.3253 0.1912                     116 123 132 
0.1091 0.1104 -0.1220                     102 108 117 
0.1091 -0.0063 0.0070                     112 91 74 
-0.1673 0.2639 0.1421                     98 104 114 
-0.1243 0.3622 -0.2817                     116 121 128 
-0.1181 -0.0370 0.0622                     151 138 130 
0.1951 0.1104 0.0070                     105 111 120 
-0.2287 0.3253 -0.0237                     114 119 126 
0.3302 0.0551 -0.0545                     92 97 104 
0.3547 0.0858 -0.0729                     119 125 135 
0.1152 -0.0247 -0.1343                     110 89 73 
0.1705 0.0551 0.1236                     81 85 91 
-0.1427 0.0797 -0.2264                     114 120 128 
0.0907 0.0674 -0.2940                     110 117 124 
0.3486 0.0920 -0.3001                     113 119 128 
-0.1857 0.2946 0.0131                     107 114 123 
0.0354 0.1104 -0.1896                     101 107 116 
0.3179 0.1042 -0.0299                     106 112 121 
-0.1243 0.3069 0.2403                     101 108 116 
0.3670 -0.5222 0.1789                     131 105 81 
0.2258 0.1042 0.1359                     109 114 123 
-0.1857 -0.5222 -0.2755                     141 117 96 
-0.0997 0.0612 0.1728                     89 96 104 
0.3240 -0.2642 -0.2571                     126 98 74 
-0.1980 0.3560 -0.1589                     112 119 128 
-0.1366 -0.0554 -0.2387                     132 105 80 
-0.1181 0.1902 -0.2817                     111 118 125 
-0.0567 0.0183 0.1052                     84 89 96 
0.0293 0.1104 -0.1220                     102 107 115 
-0.0383 0.0981 -0.3062                     103 110 119 
0.1828 0.0367 0.0254                     102 81 65 
0.0354 0.0490 0.1973                     85 90 97 
-0.2041 0.3560 -0.1404                     111 118 127 
0.2688 0.0183 0.0929                     125 101 80 
-0.0997 0.1472 -0.2694                     93 98 107 
-0.0997 0.1165 -0.3062                     106 113 121 
0.0661 0.1104 -0.2325                     103 109 118 
-0.1550 0.0920 0.0008                     108 114 124 
0.1275 0.1104 0.0377                     102 109 117 
0.0415 0.0674 0.2158                     102 110 118 
0.0354 0.1042 0.1298                     100 107 116 
-0.2164 0.2700 -0.1343                     115 120 129 
-0.1488 -0.0063 0.1052                     145 119 93 
-0.0506 0.1964 -0.2940                     75 81 87 
0.3547 0.0797 0.0070                     116 123 131 
0.1705 0.0490 0.1666                     85 89 95 
-0.1734 0.2762 0.1114                     99 106 116 
-0.1734 0.3683 0.1482                     101 106 114 
-0.0813 0.0305 0.2465                     99 104 113 
-0.1120 0.0428 0.1175                     66 69 74 
-0.0199 0.1104 -0.0053                     102 109 117 
-0.0813 0.1964 -0.2633                     96 101 110 
-0.0567 0.2148 0.2096                     112 117 125 
0.2074 0.0551 0.1973                     87 91 97 
-0.2041 0.3560 -0.1159                     116 121 130 
0.2995 0.0244 0.1543                     140 124 113 
-0.0874 0.1411 0.2526                     101 106 115 
-0.1488 0.2946 0.1605                     89 95 104 
0.3425 -0.2335 -0.2755                     140 112 87 
0.1091 0.0183 -0.1159                     133 122 116 
-0.1366 -0.0984 0.1421                     156 141 131 
0.0968 0.1042 0.0807                     103 109 118 
-0.2041 0.3499 -0.1527                     114 121 129 
-0.1673 -0.2458 0.1482                     126 99 74 
0.0047 0.0490 0.1175                     79 83 88 
0.0108 0.1104 -0.0115                     99 105 115 
0.3486 0.0612 -0.0852                     109 115 123 
-0.0014 0.1042 0.1605                     99 105 113 
-0.0567 0.0858 0.2587                     104 109 118 
-0.0137 0.0490 0.1114                     75 80 86 
0.1275 -0.0186 0.0192                     118 94 74 
-0.2164 0.3008 -0.1220                     112 118 127 
0.3425 0.0981 0.0254                     108 114 122 
-0.1058 -0.0247 -0.2141                     118 95 76 
0.3302 -0.1230 -0.2633                     142 115 89 
0.1766 0.1104 -0.0115                     104 110 120 
-0.1918 0.2455 0.1543                     81 86 93 
-0.2348 0.3622 -0.1281                     116 122 130 
0.3179 0.1042 -0.1097                     108 114 121 
-0.1918 0.2946 -0.1097                     111 118 127 
-0.1673 -0.0923 -0.2510                     149 124 101 
-0.0322 0.1104 -0.0053                     101 107 116 
-0.1795 -0.3379 0.1543                     145 125 110 
0.3179 0.0121 0.1359                     142 116 88 
0.0415 -0.0309 -0.0852                     125 102 82 
0.2933 -0.0063 0.1175                     132 107 86 
-0.0444 0.0858 0.1851                     78 84 92 
-0.1427 0.0490 -0.1466                     84 89 95 
-0.1611 -0.1476 0.1175                     155 140 130 
0.1337 0.0551 -0.1159                     80 83 89 
-0.0751 0.0244 -0.2755                     90 93 99 
-0.1550 0.0797 0.0807                     112 118 127 
-0.0936 0.1042 -0.1097                     102 109 118 
-0.1857 -0.2151 -0.2694                     166 152 141 
-0.1058 0.1042 0.2158                     116 122 131 
-0.0629 -0.0309 0.0438                     143 133 128 
-0.1243 0.2700 0.2403                     104 111 119 
-0.1181 0.1902 0.2158                     109 115 122 
-0.0874 0.2762 -0.2694                     112 119 127 
0.2258 0.0428 0.0622                     110 89 71 
0.2012 0.1104 -0.0790                     109 117 124 
0.3425 -0.1967 0.1543                     129 103 78 
0.0477 0.1104 -0.2141                     102 108 117 
-0.2041 0.2700 -0.2510                     117 124 132 
-0.1488 -0.2090 0.1605                     152 137 127 
0.2012 0.0121 0.0807                     114 91 70 
0.3118 0.0551 -0.1957                     86 89 94 
0.3425 0.0981 -0.1404                     110 117 125 
0.3486 0.0612 0.1114                     105 112 120 
0.0538 0.0551 -0.2203                     85 90 96 
-0.1304 0.3008 -0.2940                     108 114 122 
-0.1488 0.0490 0.0622                     89 92 97 
0.3179 0.1042 0.0561                     107 114 123 
-0.1795 0.3130 0.2158                     99 106 115 
0.2319 0.0551 0.2035                     86 90 97 
0.3240 -0.2151 0.1543                     135 115 101 
0.0108 0.0551 -0.1711                     71 74 79 
0.1705 0.0551 -0.2203                     74 76 82 
0.1459 0.1104 -0.0913                     109 116 123 
0.2810 0.0551 0.0622                     80 84 90 
0.1644 0.0551 0.1236                     85 90 95 
-0.1366 -0.0432 -0.2141                     77 59 45 
-0.1366 0.2393 -0.2633                     88 95 103 
0.1459 0.1104 0.0807                     104 110 119 
-0.1550 0.0551 -0.1281                     112 118 127 
-0.1918 0.2516 -0.1650                     82 87 94 
0.2565 0.1104 -0.0790                     107 113 122 
-0.0567 -0.0309 -0.0115                     152 140 131 
-0.1304 0.3069 -0.2571                     96 102 109 
-0.0751 0.1165 0.2526                     107 114 122 
-0.1550 -0.1168 0.1114                     145 129 118 
-0.1550 0.2700 -0.2878                     103 108 117 
-0.2041 0.2700 0.1114                     114 121 129 
0.0968 0.0858 0.2158                     104 110 119 
0.1766 0.0551 -0.1773                     66 70 76 
-0.1857 0.3315 -0.2755                     109 115 123 
0.0108 0.1104 -0.0913                     101 106 114 
0.0477 -0.0124 -0.0422                     106 87 72 
0.3240 0.1042 0.1666                     106 111 119 
-0.1488 -0.0124 0.1114                     144 120 97 
0.2135 0.1104 -0.1036                     103 109 118 
0.3486 0.0612 -0.1711                     111 116 125 
-0.1243 -0.0493 0.0929                     117 96 79 
-0.0690 0.1042 -0.1650                     100 106 114 
0.1705 0.1104 -0.1343                     106 113 121 
0.3547 0.0674 -0.0667                     118 125 133 
-0.0997 0.1042 -0.2755                     96 103 112 
0.3302 -0.0677 -0.2510                     145 118 91 
-0.2164 0.3867 -0.0790                     117 123 131 
0.1582 0.0551 0.2096                     89 94 100 
0.3732 -0.5959 0.1912                     131 107 88 
-0.1058 0.3437 -0.2755                     117 123 131 
-0.1611 -0.1783 0.1298                     137 115 96 
0.0907 0.0551 -0.2694                     85 89 97 
0.2196 0.1042 0.1912                     110 116 125 
0.3486 -0.4608 0.2035                     140 114 86 
-0.0260 0.0244 0.1114                     87 91 98 
-0.0567 0.2148 0.2158                     111 117 124 
-0.1980 0.3376 -0.0545                     117 123 132 
-0.0199 0.1104 -0.1404                     101 106 115 
0.1521 0.0551 0.2035                     86 90 98 
-0.1120 0.0920 0.1543                     97 103 113 
0.2995 0.0551 -0.2264                     78 81 88 
-0.0997 0.0981 0.1421                     97 104 112 
0.2749 0.1042 -0.2694                     107 114 123 
-0.1181 0.0490 -0.0667                     80 84 91 
-0.0444 0.0183 -0.0606                     67 69 73 
-0.0076 -0.0309 -0.1343                     122 95 75 
0.1398 0.1042 -0.2878                     104 110 119 
-0.1673 -0.1967 -0.2510                     142 124 109 
0.0047 0.0490 -0.1466                     67 69 74 
0.1582 0.0551 -0.1466                     81 85 91 
-0.1058 0.1288 0.2035                     108 114 123 
-0.2102 0.2639 -0.0237                     113 120 129 
0.3179 0.0121 -0.2510                     140 113 86 
0.0354 0.1104 0.0438                     99 105 114 
-0.1918 -0.4730 0.1728                     132 106 81 
-0.1795 -0.4300 0.1728                     128 100 75 
-0.0506 0.0797 0.2587                     109 115 123 
-0.0383 0.1288 0.2096                     94 100 109 
0.0845 0.0920 -0.2878                     106 110 119 
-0.0997 0.3130 -0.2755                     112 119 128 
-0.0567 0.1288 -0.2694                     89 95 103 
0.3118 -0.1046 -0.2448                     125 99 73 
0.2995 0.1042 -0.2817                     107 114 121 
0.1521 0.0367 -0.1711                     29 23 20 
-0.1488 0.3130 -0.2940                     107 113 121 
-0.0199 0.0490 0.0254                     62 66 72 
-0.0567 0.0735 0.2526                     105 111 120 
-0.0014 0.0490 -0.2141                     77 81 88 
0.1705 0.0551 -0.1466                     80 84 90 
-0.1795 -0.4546 0.2096                     140 115 90 
0.0600 0.1042 0.0684                     100 108 116 
-0.1304 0.0981 0.0991                     104 111 120 
0.0907 0.0920 -0.2940                     97 104 111 
-0.1918 0.2700 -0.0729                     110 117 126 
-0.1550 0.0797 -0.0913                     114 120 130 
0.3609 -0.4178 0.1666                     133 106 80 
-0.1980 0.3437 0.0070                     111 118 127 
0.1275 0.0551 -0.3001                     102 108 115 
0.0600 0.1104 -0.1343                     105 112 119 
0.0108 0.0735 0.2096                     103 109 118 
-0.2164 0.2762 -0.1036                     110 117 126 
0.1582 0.0121 0.0499                     106 84 67 
0.2319 0.0612 0.2465                     104 110 118 
-0.0997 0.2332 0.1728                     93 99 107 
0.1275 0.1042 0.0929                     104 111 119 
0.1766 0.0367 -0.1589                     133 123 118 
0.3486 0.0612 -0.2448                     112 117 125 
0.3302 0.0551 -0.1159                     86 90 98 
0.2810 0.0490 0.1052                     114 92 76 
0.1521 0.0490 0.2158                     88 92 100 
-0.1488 0.0490 -0.1466                     86 90 96 
0.0661 0.0981 -0.2878                     105 110 117 
-0.1611 0.2762 -0.2448                     103 110 117 
-0.1304 0.0490 -0.1097                     84 89 96 
-0.0751 0.2762 0.2219                     118 126 134 
-0.1181 0.0490 -0.0176                     81 86 93 
-0.0137 0.1042 0.0745                     102 108 117 
-0.1980 0.3192 -0.1220                     110 115 122 
0.3547 -0.4608 -0.2694                     130 104 78 
0.3302 0.0735 0.2649                     103 109 118 
-0.1795 0.2578 0.1973                     106 113 122 
0.0047 0.1042 0.0561                     105 111 119 
0.2565 0.1042 0.0684                     108 115 123 
0.3302 0.1042 -0.0360                     108 114 122 
-0.2164 0.3376 -0.2325                     114 120 129 
-0.1734 0.2516 0.1114                     83 88 96 
0.1030 0.0490 0.1359                     67 71 77 
0.2319 -0.0124 0.0868                     120 97 78 
-0.1488 0.2332 0.2035                     95 101 109 
-0.0751 0.0121 0.0561                     131 122 117 
0.1705 0.1104 -0.1466                     105 112 120 
0.0293 0.0735 0.2158                     104 111 119 
0.1582 0.0183 0.0499                     104 84 68 
0.2503 0.0858 -0.3124                     111 118 126 
0.2258 0.0858 -0.3062                     111 118 126 
0.1398 -0.0186 0.0131                     115 95 78 
0.2810 0.0551 0.0070                     86 91 98 
0.2196 0.0551 -0.1220                     81 84 89 
-0.0997 0.0674 0.2465                     100 107 115 
0.0231 0.1104 -0.0483                     100 106 115 
0.2626 0.1042 0.0254                     101 107 117 
0.2872 -0.0124 0.1666                     129 104 83 
0.1705 0.0551 -0.2755                     83 87 93 
-0.1918 0.3192 -0.1466                     110 117 124 
0.3118 -0.0063 -0.2510                     141 113 84 
0.1214 0.0551 -0.1159                     74 77 83 
-0.1304 0.2209 0.2280                     87 92 99 
-0.2041 0.3744 0.0745                     114 121 129 
0.3302 0.0981 0.2219                     107 112 121 
0.0968 0.1104 -0.0852                     105 111 119 
-0.1857 0.2885 -0.1650                     111 118 126 
0.1337 0.0551 -0.0974                     77 80 86 
-0.1427 0.2393 0.2280                     106 113 121 
0.3302 -0.3318 0.1912                     138 110 85 
0.0108 0.1104 -0.0115                     99 105 115 
-0.2102 0.3499 0.1666                     113 120 129 
0.1521 0.1104 0.0684                     102 107 116 
-0.1734 -0.3441 0.1851                     133 106 78 
-0.1673 0.2578 0.2158                     104 111 119 
0.0907 0.0490 0.1482                     86 91 97 
-0.0997 0.0551 0.2465                     106 114 122 
-0.0260 0.0674 -0.3062                     96 103 112 
0.0722 0.0551 -0.2080                     82 87 93 
-0.2348 0.3560 -0.0360                     114 120 128 
0.2688 -0.0063 -0.2510                     103 83 67 
0.0538 0.0490 0.0131                     75 80 85 
-0.0506 0.0183 -0.1650                     57 61 66 
-0.1366 0.2271 0.1851                     91 96 103 
0.3547 0.0612 0.1114                     113 120 129 
-0.0260 0.0367 0.2096                     97 102 110 
-0.1550 0.0797 0.0131                     110 116 124 
0.3302 -0.1046 0.1666                     153 135 122 
-0.1980 0.3929 0.1421                     106 112 120 
-0.0997 0.0490 0.1973                     114 120 129 
-0.0997 0.1902 -0.2694                     96 102 111 
0.1889 0.1104 -0.1404                     106 111 120 
-0.1427 -0.0984 0.1298                     128 100 74 
-0.0874 0.0981 0.1236                     99 105 113 
-0.2102 0.2639 -0.0115                     113 119 128 
0.0600 0.0490 -0.0483                     60 64 68 
-0.1058 0.0183 0.0929                     107 91 81 
0.3547 -0.6020 -0.2817                     131 106 82 
0.0354 0.1042 0.0745                     101 107 116 
-0.1488 0.2885 -0.2940                     103 109 118 
-0.2225 0.3622 0.0929                     116 123 131 
-0.0444 0.0183 -0.0299                     65 66 71 
-0.0567 0.1042 -0.2448                     91 98 106 
-0.0629 0.0183 0.1114                     87 92 98 
-0.0014 0.0490 0.1666                     84 88 95 
0.3302 -0.0616 -0.2510                     145 118 90 
0.1766 0.0551 -0.1773                     66 70 76 
0.2442 0.1042 0.0070                     109 116 125 
0.0845 0.1042 -0.2755                     106 111 120 
0.2503 0.0674 0.2526                     110 116 125 
-0.1550 0.3806 0.1728                     103 109 117 
0.1766 0.0551 0.1912                     89 94 99 
0.2995 0.0920 0.2465                     107 114 123 
-0.1120 0.1042 -0.2387                     102 108 118 
-0.1488 -0.1537 0.1482                     134 105 79 
0.3363 -0.3318 0.1666                     145 129 117 
-0.0199 -0.0186 -0.0729                     121 99 81 
0.2995 0.1042 -0.1343                     106 111 119 
0.3486 0.0858 -0.0729                     112 118 128 
-0.0813 0.0858 -0.2755                     57 61 68 
0.0845 0.0490 0.1666                     87 92 99 
0.3670 -0.3134 0.1666                     131 105 81 
-0.0936 0.1288 0.2465                     104 111 120 
-0.1918 0.3069 -0.1527                     112 119 128 
-0.1795 -0.1967 0.1605                     142 115 89 
0.3547 0.0674 -0.0299                     107 113 122 
0.3363 -0.4239 -0.2694                     136 110 83 
0.3363 0.0612 0.2649                     106 112 120 
0.0538 0.1042 0.1114                     105 112 120 
0.1398 -0.0186 0.0315                     119 95 74 
0.1582 0.0551 0.2280                     94 99 106 
0.3056 -0.0493 0.1666                     129 101 75 
0.3609 -0.3072 0.1789                     149 122 94 
-0.0260 0.0244 0.0684                     82 87 94 
0.2258 0.1042 0.1973                     111 117 126 
-0.1980 0.3376 -0.1466                     108 114 122 
-0.0997 -0.0186 -0.1711                     126 101 78 
-0.1120 0.1042 -0.0115                     100 106 116 
-0.0322 0.0183 0.0561                     83 87 94 
0.2626 0.0305 -0.2203                     143 131 123 
-0.1611 -0.1721 0.1298                     126 98 71 
0.0661 0.1042 0.1175                     105 112 121 
-0.1366 -0.0800 0.1052                     115 89 67 
0.1644 0.0060 0.0499                     111 90 72 
-0.0383 0.0981 -0.2571                     90 97 105 
-0.0260 0.1104 -0.0974                     101 107 116 
-0.0690 0.1042 -0.2141                     108 115 123 
0.1091 0.0060 -0.1159                     135 123 117 
0.2810 0.1042 0.1912                     106 111 120 
0.2258 0.0244 -0.2325                     139 128 121 
-0.1980 0.2823 0.1728                     100 106 116 
-0.2102 0.3806 -0.1711                     118 125 133 
-0.2164 0.3437 0.1175                     115 122 132 
0.2135 0.0551 0.0070                     79 82 88 
0.3363 0.0551 -0.2940                     91 97 104 
-0.1488 0.3622 0.2342                     106 113 121 
0.2810 -0.0432 -0.2448                     120 95 72 
0.3547 0.0797 0.0868                     114 121 129 
0.1582 -0.0063 -0.1834                     140 129 122 
0.2995 0.0551 0.0991                     80 82 88 
0.2319 0.1042 0.1114                     105 110 119 
0.1337 -0.0186 0.0070                     117 96 79 
0.0415 0.0121 -0.0483                     64 54 48 
-0.0997 0.0920 0.2403                     110 117 126 
0.2749 0.1042 0.0315                     106 112 121 
-0.2225 0.3192 0.0377                     114 120 127 
-0.1611 -0.1967 -0.2694                     132 106 81 
0.0047 -0.0309 -0.1159                     127 103 81 
0.1152 0.0121 -0.0299                     117 95 77 
0.1951 0.1104 -0.2387                     104 111 120 
-0.1550 0.0735 -0.1404                     116 122 131 
0.2258 0.0981 0.2219                     109 116 125 
0.3302 0.1042 -0.0606                     104 111 119 
0.2442 0.1042 0.0868                     106 113 119 
0.0968 0.1042 0.1543                     101 107 115 
-0.1120 0.0490 -0.0606                     75 79 87 
0.3302 -0.2520 0.1973                     131 104 78 
-0.0260 0.0305 -0.2203                     81 85 92 
0.3302 0.0981 0.2096                     106 111 119 
0.2995 -0.1107 0.1666                     130 103 77 
-0.0444 0.0244 -0.2694                     90 94 101 
0.0354 -0.0309 -0.0790                     126 103 82 
-0.2287 0.3499 -0.0053                     109 114 124 
0.3425 0.0551 -0.2141                     94 99 106 
-0.1918 0.2946 -0.1281                     106 113 123 
0.3179 0.1042 0.0868                     100 107 117 
0.2872 -0.0432 -0.2448                     122 96 73 
-0.0936 0.0060 -0.2080                     108 89 70 
0.0968 0.1042 0.0929                     103 109 118 
0.3056 0.0551 -0.2755                     89 94 101 
-0.0629 -0.0002 0.0499                     137 127 123 
-0.0076 0.0735 0.2035                     97 103 111 
0.2995 0.1042 -0.0790                     106 111 120 
-0.0567 0.0981 0.1605                     88 93 102 
-0.1980 0.2578 -0.2448                     117 124 132 
0.1091 0.0551 -0.1036                     70 73 79 
-0.2225 0.3192 -0.1589                     113 119 128 
0.0661 0.0490 0.1052                     82 87 94 
-0.0874 0.2025 0.2465                     106 112 120 
-0.1734 -0.1414 0.1421                     144 117 88 
-0.1058 0.1411 0.2280                     113 121 130 
0.3363 0.0674 0.2649                     102 109 117 
0.3118 0.0551 -0.0360                     89 95 102 
-0.1550 0.0490 0.0315                     114 120 128 
-0.2164 0.3683 -0.2448                     113 118 127 
0.0108 0.0490 0.0807                     71 75 81 
0.0722 0.1042 0.0991                     103 110 119 
-0.0997 -0.0002 0.0868                     141 131 126 
0.0907 0.1104 -0.1097                     103 109 116 
0.1644 0.0551 -0.2940                     85 89 95 
-0.1243 0.3622 -0.2633                     112 118 126 
-0.1734 -0.1660 0.1543                     149 122 94 
-0.0813 0.1411 0.1851                     91 96 103 
-0.1550 -0.1783 0.1543                     132 104 79 
0.3302 0.0981 -0.0299                     112 117 126 
0.1459 0.1104 -0.0790                     102 108 117 
0.2135 0.1104 -0.2325                     104 111 120 
0.1644 -0.0186 0.0438                     118 96 78 
0.3363 -0.3256 0.1666                     147 130 117 
0.3547 -0.4976 -0.2694                     128 100 74 
-0.1181 0.3499 0.2158                     119 125 132 
0.3240 0.0551 -0.0299                     90 96 102 
-0.0874 -0.0002 -0.1650                     115 92 72 
-0.0629 0.0367 0.2526                     102 107 114 
0.2135 0.0551 -0.1527                     79 84 90 
-0.1304 -0.0493 -0.2264                     129 105 85 
-0.0629 0.1288 0.1912                     90 96 104 
0.0047 0.1042 -0.2510                     104 110 120 
-0.1857 -0.2212 -0.2694                     160 145 133 
-0.0936 0.0551 -0.3062                     107 113 121 
-0.1918 0.3008 -0.0422                     109 115 125 
-0.0629 0.0920 0.1728                     78 83 92 
0.1951 0.1042 0.2096                     112 118 127 
0.3547 0.0674 -0.2325                     115 121 129 
0.3056 0.0183 0.1236                     132 107 84 
0.2442 0.1042 0.1851                     106 113 121 
-0.1243 -0.0186 0.0684                     151 137 129 
0.2319 0.1042 0.1912                     104 110 119 
0.0354 -0.0124 -0.0115                     104 83 64 
-0.1181 0.0920 -0.2571                     107 115 122 
-0.2102 0.2885 0.1298                     113 120 129 
-0.0997 0.2393 -0.3001                     111 118 125 
0.3302 -0.3871 0.1728                     140 121 106 
-0.1181 0.0428 0.0499                     68 71 77 
-0.0936 0.0244 -0.2571                     97 103 111 
0.3179 -0.2888 0.1912                     140 113 87 
0.1705 0.0551 -0.1281                     77 80 85 
0.2135 0.0612 -0.3062                     102 110 118 
0.3118 -0.1967 0.1666                     134 106 78 
0.3425 -0.3686 -0.2633                     129 102 77 
-0.1857 0.3253 -0.2018                     107 113 121 
-0.0874 0.1042 0.1114                     98 103 111 
0.3425 -0.4423 0.1851                     145 121 99 
0.2319 0.0551 0.2465                     101 106 115 
-0.0751 0.0244 -0.2264                     84 88 94 
-0.1857 -0.3625 -0.2633                     134 110 89 
-0.1980 0.3376 -0.0606                     117 125 133 
0.2810 -0.0186 -0.2633                     156 142 133 
-0.1980 0.3806 0.1052                     107 114 122 
-0.0014 0.0981 0.1666                     100 106 114 
-0.1673 0.2578 0.2158                     104 111 119 
-0.1366 0.3744 -0.2633                     111 116 123 
0.0108 0.0551 -0.2817                     98 103 112 
0.0968 -0.0002 -0.1466                     137 127 122 
0.2810 -0.0432 0.1543                     127 99 77 
0.2626 0.0735 -0.3124                     112 119 126 
-0.1550 0.0920 0.0131                     109 115 122 
-0.2164 0.3929 -0.0974                     118 123 133 
-0.0322 0.1042 0.0008                     104 111 119 
-0.1243 -0.0493 -0.2264                     104 81 63 
0.1828 -0.0186 0.0561                     33 24 18 
-0.0383 0.0612 0.2526                     103 109 117 
0.1705 0.1104 -0.1711                     104 109 117 
-0.1181 0.2332 -0.2633                     92 97 106 
0.3179 -0.1414 0.1789                     133 106 80 
-0.2102 0.3315 0.1421                     109 116 124 
-0.0506 0.0183 0.0684                     78 81 88 
0.0354 -0.0309 -0.0545                     127 104 88 
-0.1366 0.3315 0.1666                     91 98 107 
-0.0997 -0.0370 -0.1773                     126 103 80 
0.3486 0.0735 0.2342                     110 116 126 
-0.1918 0.2455 0.1605                     89 94 99 
-0.1488 -0.0124 0.1236                     147 120 95 
0.1030 -0.0063 -0.0053                     111 90 74 
0.1214 0.0305 0.0192                     96 78 63 
-0.0936 0.0367 -0.2448                     92 98 104 
-0.2164 0.2700 -0.1404                     113 119 127 
-0.1550 -0.1476 0.1236                     127 101 75 
-0.1120 0.2700 0.1728                     94 101 110 
0.1152 0.1104 -0.1036                     104 110 118 
-0.1366 0.3744 -0.2940                     111 116 122 
-0.0444 0.1472 0.1973                     96 102 109 
-0.1734 0.2516 -0.2141                     97 103 110 
0.2196 0.0858 -0.3062                     109 114 123 
0.0354 -0.0309 -0.0790                     126 103 82 
0.0231 0.1104 -0.2080                     98 104 114 
-0.1366 0.2271 0.2342                     101 107 117 
-0.1980 0.2700 0.1605                     113 118 127 
-0.0199 0.0490 0.1236                     68 72 79 
-0.0014 0.1104 -0.2325                     101 107 117 
-0.0567 0.0121 0.0684                     79 84 89 
0.2196 0.0060 -0.2203                     139 128 121 
0.1275 0.0551 -0.0974                     73 76 82 
-0.1918 0.2762 -0.0974                     111 119 127 
-0.1058 0.1656 0.2465                     107 113 121 
0.2626 0.0551 -0.2080                     75 77 82 
-0.1857 0.2885 -0.1834                     110 117 126 
0.3547 0.0612 -0.1711                     111 117 125 
0.2319 0.0551 0.2035                     86 90 97 
-0.0444 0.0920 -0.2755                     71 76 84 
-0.1611 -0.1353 0.1543                     137 110 85 
0.3118 0.0735 0.2649                     103 109 117 
0.0661 0.1042 -0.2633                     99 105 112 
-0.1857 -0.1967 0.1605                     143 116 89 
-0.0076 0.0797 0.2035                     97 103 111 
0.1337 0.0551 -0.1097                     78 81 87 
0.0108 0.0490 0.0622                     79 83 90 
-0.0260 0.0305 -0.0422                     51 54 59 
0.0108 0.0490 -0.1650                     69 72 77 
0.0231 0.0920 0.1973                     100 105 113 
0.2565 0.0428 0.1359                     108 88 71 
-0.2287 0.3315 -0.0790                     116 122 130 
0.3118 -0.2151 -0.2755                     161 148 139 
-0.0444 0.0121 -0.0237                     66 68 72 
0.3302 -0.2274 -0.2755                     131 102 75 
-0.1857 0.2823 -0.1711                     117 124 132 
0.3363 -0.2765 0.1973                     136 110 83 
0.3547 -0.5099 -0.2694                     132 105 81 
0.3547 0.0797 0.0070                     116 123 131 
0.3179 0.1042 -0.0974                     109 115 122 
0.3240 -0.1107 -0.2448                     155 140 130 
0.3056 -0.0493 0.1666                     129 101 75 
0.3486 -0.1783 0.1543                     139 112 88 
0.2503 0.0551 -0.1281                     86 89 95 
0.3363 0.0981 0.1543                     116 121 128 
-0.0813 0.0981 0.1912                     84 91 99 
-0.1980 0.2455 0.1236                     19 21 23 
-0.0874 0.2455 0.2465                     108 114 122 
-0.1181 0.0490 -0.2325                     74 77 84 
0.3486 0.0858 0.1543                     117 124 132 
-0.1734 -0.1291 0.1543                     146 119 92 
0.3363 -0.1844 -0.2510                     153 139 130 
0.0538 0.0490 0.0991                     84 88 95 
-0.1734 -0.4239 -0.2694                     140 113 88 
0.2688 0.0244 0.1482                     101 80 62 
0.0722 0.1104 -0.0606                     100 105 113 
-0.1488 0.0490 -0.1711                     82 86 91 
-0.2164 0.3069 -0.1773                     115 122 131 
0.0108 0.0490 0.1052                     80 84 89 
0.2995 0.0428 0.1175                     112 90 69 
0.1459 0.0551 0.0745                     76 79 86 
0.2872 -0.0432 -0.2633                     138 120 106 
-0.1673 -0.2458 0.1421                     124 98 72 
-0.1550 0.0612 0.0192                     115 122 130 
-0.1304 0.0551 0.1421                     97 103 112 
0.2810 0.1042 -0.1711                     108 115 123 
-0.0629 0.1042 -0.2325                     98 104 114 
0.3425 -0.1537 -0.2633                     147 120 93 
0.1337 0.1042 0.1052                     102 109 117 
-0.0813 -0.0370 0.0131                     126 104 88 
0.1889 0.0551 0.1851                     86 89 95 
-0.1795 0.2516 -0.1957                     105 114 120 
-0.1980 0.2516 -0.2571                     115 121 129 
-0.2164 0.3069 0.0315                     116 123 131 
-0.1427 0.0858 0.0929                     108 116 124 
-0.1304 0.2455 0.1728                     89 94 102 
0.2626 0.0551 -0.1527                     83 87 94 
0.1951 0.1042 -0.2878                     105 111 120 
-0.1857 -0.2581 0.1666                     148 126 107 
-0.0444 0.1534 0.2035                     103 109 117 
0.1951 0.0858 -0.3062                     109 115 123 
0.3056 0.1042 -0.1404                     108 113 120 
0.0170 0.0551 -0.2141                     75 79 86 
-0.1795 -0.4730 0.2096                     142 117 92 
-0.1427 0.0490 -0.1466                     84 89 95 
-0.1611 -0.2642 0.1728                     149 132 121 
-0.0506 0.0183 0.0315                     75 77 82 
-0.1243 0.0920 -0.2510                     107 114 122 
0.1459 0.0674 -0.3001                     104 109 118 
0.2135 0.0551 -0.1711                     75 79 86 
-0.1488 -0.1107 -0.2571                     135 110 85 
-0.1857 0.2578 -0.1343                     106 114 122 
0.0047 0.0612 -0.2817                     98 104 113 
-0.0444 0.1656 0.2158                     109 117 126 
0.2565 -0.0063 0.1359                     128 105 82 
0.3302 -0.1168 0.1851                     146 122 97 
-0.1181 0.0981 -0.2264                     111 117 124 
-0.0567 0.0183 0.1605                     87 91 96 
0.1398 0.0674 -0.3001                     111 117 125 
-0.2102 0.3069 -0.2325                     117 123 131 
-0.0690 0.2639 -0.2878                     44 48 53 
-0.1058 0.1042 -0.1834                     101 107 116 
0.3118 0.0551 -0.1466                     94 99 106 
-0.1550 -0.0861 0.1114                     164 151 141 
0.1828 0.0490 0.1666                     81 85 90 
-0.1857 0.3192 0.0807                     105 111 120 
0.3425 -0.4423 0.1728                     147 128 113 
-0.0690 0.1165 0.1912                     91 97 106 
-0.1980 0.3192 0.0254                     107 113 123 
-0.0322 0.0981 0.2035                     88 94 103 
0.3240 -0.0247 -0.2510                     145 118 90 
-0.1734 -0.1168 0.1359                     145 120 95 
-0.1734 0.2885 -0.2203                     109 116 124 
-0.2041 0.3560 -0.0176                     112 120 129 
-0.0874 0.1042 -0.1896                     101 106 115 
-0.1673 -0.1414 0.1359                     153 134 119 
0.2503 0.0551 -0.0360                     88 93 100 
-0.1734 0.2762 0.1052                     100 107 116 
-0.1611 0.3744 -0.2510                     106 112 121 
0.3179 -0.1783 0.1543                     145 130 118 
-0.1857 0.3130 0.0929                     104 111 119 
0.3240 -0.1107 0.1789                     140 114 87 
0.1766 0.0244 0.0684                     97 78 62 
-0.1795 -0.4055 0.2035                     147 125 106 
0.3302 0.1042 -0.2755                     112 117 125 
0.1459 0.0551 -0.1281                     82 84 88 
-0.1120 0.3130 0.1728                     95 102 111 
-0.1550 0.0490 -0.0545                     108 115 123 
0.3118 0.0060 0.1543                     150 134 122 
-0.2225 0.3560 0.0929                     114 121 129 
0.0968 0.0551 -0.2387                     88 93 99 
0.2012 0.1104 -0.0913                     104 110 119 
0.2872 0.0244 -0.2571                     117 94 72 
-0.1611 -0.2704 0.1482                     131 109 91 
-0.2164 0.2885 -0.0176                     113 121 130 
-0.1550 0.0551 -0.0053                     110 116 125 
0.2872 0.0428 0.1114                     100 79 64 
0.3363 0.0551 0.0929                     89 93 100 
0.3240 -0.0493 0.1421                     134 106 81 
-0.0629 0.1964 -0.3062                     106 112 121 
0.2995 -0.0309 0.1298                     122 101 85 
-0.1243 0.0981 0.0745                     103 108 117 
0.3179 0.0551 0.1236                     78 81 88 
0.3609 -0.2949 0.1728                     147 119 93 
-0.1550 0.0612 0.0499                     115 122 130 
-0.1918 -0.5713 0.2342                     118 99 84 
0.3732 -0.4300 -0.2694                     147 128 111 
-0.2041 0.3683 0.0131                     114 119 127 
-0.1427 -0.1353 0.1298                     131 105 79 
0.3486 0.0920 0.1973                     117 124 132 
-0.0567 0.0735 0.2526                     105 111 120 
0.0231 0.1042 0.1482                     100 105 112 
0.1521 -0.0186 0.0008                     119 98 81 
0.1459 0.0551 -0.0176                     74 79 85 
0.0354 0.1042 0.0622                     100 107 116 
-0.0813 0.0551 -0.3062                     109 115 123 
-0.1550 -0.2888 0.1728                     156 139 127 
-0.1058 -0.0432 -0.2080                     120 97 77 
-0.0260 0.0428 -0.0483                     29 31 35 
-0.1918 0.3130 -0.0115                     109 114 123 
0.2074 0.0305 -0.1834                     141 129 121 
-0.2164 0.3867 0.1666                     56 60 65 
0.2626 -0.0124 0.1298                     118 96 78 
0.2688 0.1104 -0.1527                     107 113 120 
-0.1366 -0.0002 -0.2387                     129 103 79 
-0.1980 0.3622 -0.2018                     109 116 125 
0.3118 -0.2581 -0.2633                     131 104 78 
0.1398 0.0060 -0.1404                     139 128 122 
0.3118 0.0551 -0.0790                     89 94 101 
0.2565 0.0428 -0.2141                     139 128 120 
-0.1058 0.0490 -0.0360                     79 84 91 
-0.1058 -0.0432 0.0561                     117 95 77 
-0.2164 0.3990 -0.1773                     110 117 125 
0.1275 -0.0002 -0.1650                     138 128 122 
-0.1427 0.0490 -0.0852                     84 89 96 
0.0538 0.1104 -0.1957                     99 105 114 
-0.0383 0.0428 0.2465                     100 105 113 
0.0722 0.0490 0.0561                     76 79 84 
-0.0936 0.0367 0.2403                     98 103 112 
-0.2102 0.3008 0.0991                     117 123 132 
-0.0137 0.0490 0.0499                     70 74 80 
0.1275 0.0920 0.2219                     105 111 120 
0.3425 -0.1660 0.1728                     157 140 127 
-0.1550 -0.1476 -0.2510                     133 106 79 
0.2381 0.0551 -0.0852                     85 89 96 
-0.1427 -0.1046 0.1114                     123 97 73 
-0.1734 0.2516 -0.2141                     97 103 110 
-0.0751 0.1104 -0.0667                     104 110 119 
-0.2225 0.3069 -0.1220                     114 119 127 
-0.1120 0.3437 -0.2755                     118 125 133 
0.3486 0.0551 0.1973                     113 119 128 
-0.0629 0.1042 0.2587                     107 114 122 
0.1398 0.1104 -0.1466                     103 109 117 
0.0354 0.1104 -0.1097                     101 106 114 
-0.0936 0.2700 -0.3001                     106 113 122 
0.0047 0.0490 -0.2448                     81 87 94 
-0.1120 0.0490 -0.2141                     48 52 56 
-0.1427 0.3867 0.2096                     112 118 126 
0.1398 0.0367 -0.1404                     50 41 35 
-0.1366 0.1042 -0.1220                     106 113 120 
0.1582 0.0490 0.1421                     83 86 91 
0.1705 0.1042 0.1114                     108 115 122 
0.3486 0.0551 -0.2571                     93 98 106 
-0.0076 -0.0309 -0.0176                     127 104 88 
-0.0506 0.1534 0.1973                     97 102 109 
-0.1980 0.3192 -0.1036                     111 117 126 
-0.1304 -0.0247 -0.2387                     131 105 79 
0.0108 0.0674 0.2096                     97 103 112 
-0.0260 0.0305 0.1052                     81 86 93 
0.1337 0.0490 0.1052                     76 81 87 
-0.0997 0.0735 0.2096                     116 123 131 
-0.2102 0.2516 0.0131                     82 88 96 
0.3179 -0.0124 -0.2448                     151 123 96 
-0.0260 0.0367 0.0991                     72 77 84 
0.1889 -0.0002 0.0254                     117 93 74 
-0.1488 0.0735 0.1175                     109 116 125 
0.2626 0.0244 -0.2203                     146 134 126 
-0.0260 0.1104 -0.0790                     102 108 117 
0.3302 -0.1353 -0.2694                     139 112 86 
-0.0874 0.2885 0.2158                     115 121 130 
-0.1366 -0.0739 -0.2448                     128 102 77 
-0.0260 0.0305 0.0377                     69 73 80 
0.2012 0.0367 0.0868                     112 91 74 
0.1828 0.1104 0.0929                     104 109 118 
-0.0629 -0.0002 -0.1773                     106 86 69 
0.1889 0.0551 -0.0606                     81 84 91 
-0.1673 -0.1046 0.1543                     141 113 89 
0.1337 0.0490 0.2219                     90 94 100 
-0.1673 -0.1905 0.1359                     123 95 70 
-0.0936 0.0183 0.1359                     86 90 97 
0.2135 0.1042 0.1789                     106 112 121 
-0.0813 0.0121 -0.0422                     81 86 92 
-0.1181 0.1964 0.2219                     107 112 120 
0.3486 0.0612 0.1851                     105 112 121 
