ply
format ascii 1.0
comment VCGLIB generated
element vertex 891
property float x
property float y
property float z
property uchar red
property uchar green
property uchar blue
element face 0
property list uchar int vertex_indices
end_header
-0.0043 -0.0547 0.2913                     101 77 68 
-0.0411 -0.0547 0.1808                     104 79 70 
0.4379 0.1848 0.3834                     139 118 110 
0.2966 0.1541 -0.2552                     106 74 60 
-0.2254 -0.0916 0.1562                     120 89 76 
-0.1824 0.2769 -0.2307                     113 81 67 
0.2659 0.0743 -0.2982                     116 85 71 
0.3151 -0.4539 0.2115                     72 72 72 
-0.1517 0.2892 0.3589                     109 80 67 
-0.0350 0.0067 0.4080                     117 85 72 
-0.0227 -0.0916 -0.2921                     112 85 74 
0.0326 -0.2574 -0.0280                     58 58 58 
-0.1946 0.2155 -0.0280                     111 80 67 
-0.1455 0.2769 -0.2859                     133 109 99 
0.1677 0.0620 -0.2982                     116 85 71 
-0.2131 -0.0486 -0.2675                     136 113 105 
-0.2438 0.2032 -0.1938                     126 92 78 
-0.1885 0.3199 0.2483                     121 88 74 
0.4072 0.0988 0.0887                     201 201 200 
-0.1639 0.1111 0.2975                     77 55 47 
0.4318 0.2585 -0.2798                     150 136 131 
0.4379 0.0681 0.1378                     204 204 203 
0.1308 0.1295 0.1010                     190 189 187 
0.1001 -0.1714 -0.0157                     39 38 38 
0.4072 0.0988 0.2545                     199 199 197 
-0.0104 0.1295 0.1132                     182 181 179 
0.4010 -0.0486 0.0457                     107 81 72 
0.3949 0.1050 0.0027                     202 202 200 
0.0756 -0.0547 -0.2430                     101 77 68 
0.3458 0.1172 0.0948                     198 197 196 
0.1800 0.1909 -0.2552                     105 72 59 
0.2721 -0.0547 0.2790                     103 79 70 
0.2107 0.2339 0.4080                     118 86 73 
0.4133 0.2708 -0.2859                     120 88 74 
0.3519 -0.0486 0.2115                     105 80 71 
0.2475 -0.0793 -0.2982                     114 86 74 
-0.2499 0.0988 -0.0034                     127 93 78 
-0.2438 0.0067 0.1685                     126 92 78 
0.4379 0.0374 -0.2552                     203 202 201 
0.2291 0.1602 0.3098                     105 73 59 
0.1370 -0.0240 -0.2982                     116 85 71 
0.0449 0.1418 0.4080                     116 85 71 
-0.0411 -0.0547 0.1317                     103 79 69 
-0.1394 -0.0547 0.1317                     102 78 69 
0.1493 -0.3188 0.0518                     70 70 70 
0.0694 0.1295 -0.1508                     185 184 182 
-0.0657 0.2094 0.3098                     97 67 56 
-0.0166 -0.2758 0.0395                     54 52 52 
0.0019 0.1479 0.4080                     117 85 72 
0.3151 -0.0547 -0.2000                     105 80 70 
0.0694 0.2646 0.4019                     133 109 100 
0.1001 0.1050 0.3098                     83 60 51 
-0.2438 0.3015 0.1685                     126 93 79 
-0.1639 -0.0731 0.3896                     114 83 71 
0.2045 0.1295 -0.0833                     193 192 190 
-0.0043 -0.0486 0.3282                     84 64 57 
-0.2499 0.0558 0.0764                     126 94 79 
0.0571 -0.0056 -0.2982                     116 85 71 
0.3151 0.2216 0.4080                     117 85 72 
0.1431 -0.2942 0.0764                     61 60 59 
-0.0227 0.1295 -0.1754                     180 178 175 
-0.0902 0.2708 -0.2859                     128 101 91 
0.4256 0.0927 0.1132                     203 202 201 
-0.1946 0.2953 0.0518                     119 87 73 
0.2352 0.2339 0.3220                     111 81 69 
-0.1946 0.0558 -0.2859                     150 134 128 
0.3151 0.1971 0.3220                     111 78 63 
0.3581 -0.0486 0.2176                     106 80 71 
0.0940 -0.2512 -0.0280                     64 63 63 
0.3949 -0.0486 0.1132                     106 81 71 
-0.2131 -0.0977 -0.2368                     106 81 71 
0.4256 0.0190 -0.2675                     141 123 117 
-0.2376 0.0006 0.2483                     126 93 79 
-0.1025 -0.0240 -0.2982                     116 84 71 
-0.1946 0.1295 -0.0280                     104 79 68 
0.2966 -0.0854 -0.2921                     112 85 74 
0.4072 -0.0486 0.1746                     107 81 71 
0.0142 -0.2758 0.0518                     71 69 69 
0.0326 -0.2451 0.0334                     54 53 52 
-0.1946 -0.0547 0.2790                     87 61 52 
-0.2499 0.1909 0.0150                     127 94 78 
0.4256 -0.0916 -0.2859                     112 82 71 
0.2475 -0.0547 0.0088                     103 79 70 
-0.1148 0.2155 -0.2982                     116 85 71 
-0.2069 0.0681 -0.2737                     149 133 127 
-0.2499 0.2216 0.0150                     127 93 78 
0.0817 0.1418 -0.2982                     117 85 72 
-0.2499 0.0313 0.0764                     127 93 79 
-0.2254 0.3875 -0.0280                     129 99 88 
0.3826 0.2339 -0.2982                     117 86 72 
0.2966 0.1234 -0.0157                     196 195 194 
0.0940 0.1295 0.0088                     189 188 186 
0.0019 0.1234 0.2176                     177 174 172 
0.1615 0.2585 -0.2675                     126 102 93 
0.1063 0.1295 -0.1754                     185 184 182 
0.2844 -0.0547 -0.0833                     103 79 69 
0.0940 -0.0854 -0.2859                     112 85 74 
0.3888 -0.0486 0.2913                     104 79 70 
0.0633 0.2032 0.3159                     102 71 58 
0.1063 -0.2819 0.0027                     66 66 66 
-0.2069 -0.0424 -0.1631                     78 56 48 
0.3458 0.1234 0.0273                     197 197 195 
-0.0473 -0.0547 0.1562                     104 79 70 
0.1370 -0.2635 -0.0649                     60 59 57 
0.2598 0.1234 -0.0894                     195 194 193 
0.3396 0.1295 0.3159                     106 74 61 
-0.0166 0.1664 -0.2491                     94 64 52 
0.0326 0.1295 -0.0649                     188 186 185 
-0.0534 0.2401 0.3220                     102 74 63 
0.3765 0.1111 -0.2184                     195 194 193 
-0.1885 0.2769 -0.2061                     114 82 68 
0.4379 -0.0117 0.1255                     128 94 79 
0.2782 -0.0547 0.1010                     104 79 70 
0.3151 -0.0179 0.4080                     116 85 71 
-0.1148 -0.0547 -0.0526                     101 77 69 
0.2598 -0.4232 -0.1754                     72 72 72 
0.4379 -0.0179 0.2545                     127 93 78 
0.1677 -0.0547 0.2913                     102 78 69 
-0.1148 0.1234 -0.2491                     84 61 52 
0.3519 0.1172 0.1562                     197 196 195 
-0.2499 0.1357 -0.1631                     126 93 78 
0.3581 -0.0486 0.2790                     104 79 70 
0.1922 0.1418 0.4080                     117 85 72 
0.3642 -0.0486 0.1132                     105 79 70 
-0.2008 -0.0424 -0.0587                     86 67 60 
-0.0043 -0.0793 0.3527                     102 78 68 
-0.2499 0.2953 0.0948                     126 93 79 
0.2291 -0.0547 0.2606                     103 79 70 
-0.0350 0.2646 -0.2982                     133 109 99 
-0.0473 -0.3311 0.1132                     63 62 62 
0.2168 -0.3556 -0.1447                     68 67 67 
0.1861 -0.3679 -0.1570                     75 75 75 
0.1247 -0.0547 -0.2184                     104 79 70 
-0.0350 0.1295 0.1255                     182 180 178 
-0.0166 0.1295 0.1808                     179 177 175 
-0.1885 0.1295 0.2361                     97 73 64 
0.0203 -0.2021 -0.0403                     66 64 64 
-0.1946 0.1848 0.0457                     107 77 65 
-0.1762 -0.0486 -0.0034                     99 76 67 
-0.0534 0.1234 0.2422                     167 164 162 
0.4256 0.0804 -0.0710                     204 204 202 
0.2352 -0.0240 0.4080                     116 85 71 
-0.2254 -0.0916 -0.0894                     102 78 69 
0.3765 0.2155 -0.2614                     113 81 68 
0.0510 0.1848 -0.2982                     117 85 71 
0.1308 0.1295 -0.1447                     188 187 185 
0.4195 0.0128 -0.0157                     93 68 58 
0.1124 -0.2451 0.0150                     60 58 58 
0.3581 0.2216 -0.2982                     117 86 72 
0.1308 0.1295 0.0580                     191 190 188 
0.0940 0.2278 -0.2982                     117 86 72 
0.2721 -0.0056 -0.2982                     117 85 72 
0.0387 0.0988 -0.2982                     116 85 71 
0.0633 -0.0056 0.4080                     116 85 71 
0.1493 0.2094 -0.2982                     117 85 72 
0.3888 0.1971 0.4080                     116 85 71 
0.0756 0.1357 0.3098                     94 64 51 
0.0203 -0.0547 0.2545                     103 79 69 
0.0203 -0.1161 -0.0157                     55 54 54 
-0.0043 0.1295 -0.1631                     182 181 178 
0.3151 0.1234 -0.1877                     193 192 190 
-0.1946 0.0988 0.0457                     84 60 51 
0.0142 0.0190 -0.2982                     117 85 72 
-0.2438 0.1172 0.2054                     126 93 78 
0.4379 0.0006 0.0825                     128 95 80 
0.1615 -0.2881 0.0457                     78 77 77 
0.2844 -0.0547 -0.0219                     103 79 70 
0.1984 -0.0547 0.1992                     104 79 70 
-0.0841 -0.0547 0.0702                     101 76 67 
0.1738 0.1725 0.3098                     103 71 57 
-0.1332 0.1234 0.1624                     164 161 158 
0.3212 -0.0547 -0.0894                     104 79 70 
-0.2254 -0.0916 -0.0956                     102 78 68 
0.1247 0.1295 -0.1447                     189 188 186 
0.1800 -0.3556 -0.1263                     71 71 71 
0.2107 0.2523 0.3405                     119 93 83 
-0.0964 0.1234 -0.0342                     178 175 173 
0.1554 0.1295 -0.0956                     192 191 189 
-0.0902 0.1295 0.1132                     177 175 172 
0.1800 0.1295 -0.1201                     191 190 188 
-0.2069 -0.0609 -0.0034                     88 60 50 
0.3458 0.0313 -0.2982                     116 85 71 
0.2782 0.1541 0.3159                     106 74 60 
-0.0227 -0.3372 0.0887                     71 71 71 
0.4133 0.0988 0.0211                     202 201 200 
0.1677 -0.3433 0.0764                     71 71 71 
0.0080 0.1172 0.2606                     164 160 158 
0.2782 -0.0486 -0.2982                     116 84 70 
0.0326 0.0435 -0.2982                     116 85 71 
0.2414 0.2523 -0.2675                     118 89 78 
-0.0718 0.2339 -0.2614                     100 73 61 
0.2659 -0.0240 -0.2982                     117 85 72 
0.2537 -0.3741 0.1378                     78 78 78 
-0.2499 0.2032 0.0518                     127 94 79 
-0.0166 0.0743 0.4080                     117 85 72 
0.3581 0.0497 -0.2982                     117 86 72 
0.1186 -0.2574 0.0088                     73 72 72 
0.0878 0.2462 0.4080                     119 87 74 
0.1677 -0.0793 -0.2921                     113 86 75 
-0.2315 -0.0977 -0.0034                     115 87 75 
-0.1885 0.3199 0.2483                     121 88 74 
0.0510 0.1295 0.0088                     188 187 185 
0.3089 -0.0977 0.3712                     99 73 63 
0.0142 -0.2205 -0.0464                     65 64 64 
-0.1701 0.2646 -0.2430                     143 129 123 
0.3028 0.1234 -0.1938                     191 189 188 
-0.1946 0.2953 0.0764                     119 86 72 
-0.0595 -0.0670 0.3343                     92 66 57 
0.0264 -0.0793 0.3466                     98 74 65 
0.3274 0.2585 0.3466                     128 105 96 
0.3458 0.0313 0.4080                     117 85 71 
0.0203 0.2523 -0.2982                     120 88 75 
-0.1332 -0.0916 -0.2737                     102 78 68 
-0.2069 0.2094 -0.2737                     151 135 129 
-0.1517 -0.4785 0.2361                     82 82 82 
-0.0350 0.1295 0.1010                     183 181 179 
-0.2438 0.2278 0.1808                     126 92 78 
-0.0288 0.1295 0.0702                     184 182 181 
0.1370 -0.3065 0.0273                     69 69 69 
-0.1148 -0.0486 0.3036                     99 75 67 
0.0080 0.2523 -0.2614                     111 83 73 
0.2659 0.1234 0.1992                     189 188 186 
0.1984 -0.0609 -0.2614                     93 68 59 
0.0203 0.1295 -0.1877                     179 178 176 
0.4133 -0.0486 0.1317                     108 82 72 
-0.1946 0.1172 -0.1324                     97 71 61 
-0.2254 0.2831 0.3282                     124 93 79 
0.1063 -0.2574 -0.0096                     70 69 69 
-0.1946 0.1479 -0.0034                     103 75 64 
0.2168 0.1357 -0.2982                     117 85 72 
-0.1946 0.3383 0.2238                     123 90 75 
0.1431 -0.0977 -0.2859                     111 81 70 
-0.2192 0.2646 -0.2675                     134 110 101 
0.4195 0.0128 0.3220                     194 193 191 
-0.0964 -0.0547 0.2668                     102 78 69 
0.2168 0.1295 -0.0587                     192 191 190 
0.1677 0.1909 0.3159                     104 72 58 
0.4256 0.1111 0.4019                     150 134 128 
0.2475 -0.0547 -0.2061                     102 77 66 
0.3458 0.2708 0.3896                     137 116 107 
0.3519 0.1357 0.3159                     108 78 65 
0.2537 -0.0854 -0.2921                     112 85 74 
0.3519 0.2523 0.4080                     119 88 74 
-0.2438 0.1787 -0.1754                     126 93 78 
0.0878 -0.0547 0.1317                     102 78 69 
0.2905 0.1295 0.3159                     102 73 60 
0.4133 0.0804 -0.2675                     94 68 58 
-0.2376 0.0681 -0.2368                     124 90 75 
0.2475 -0.0547 -0.1693                     104 79 70 
0.1186 -0.0547 0.2668                     103 79 70 
0.3642 0.1787 -0.2982                     117 85 71 
-0.2499 0.2769 0.0027                     126 94 79 
-0.2499 0.1602 0.1624                     126 93 78 
0.0142 0.1295 -0.1570                     183 181 179 
0.2782 0.0804 0.4080                     116 85 71 
-0.1639 0.1541 -0.2921                     116 84 70 
-0.2499 0.1357 0.1562                     126 93 78 
0.2844 -0.4048 -0.1877                     82 82 82 
-0.0227 -0.2881 0.0641                     56 54 54 
0.2844 0.2769 -0.2859                     127 100 90 
-0.1639 0.1909 0.4019                     117 85 72 
0.1984 0.1172 0.2668                     171 168 166 
0.4133 0.0927 0.0887                     200 200 199 
-0.1455 0.1357 0.3036                     81 54 44 
-0.1885 0.2953 -0.2245                     116 83 69 
0.0264 -0.0547 0.2299                     103 79 69 
-0.1578 0.1172 -0.0034                     154 149 146 
-0.0964 -0.3679 0.1317                     80 80 80 
0.3703 -0.0977 -0.2859                     110 81 70 
-0.1885 0.1602 -0.1877                     99 70 59 
-0.0657 -0.0547 0.1808                     104 79 70 
-0.2376 0.2831 -0.2491                     144 123 114 
-0.0166 0.1295 -0.1508                     182 179 177 
0.1063 0.2523 0.3405                     119 94 84 
-0.2008 -0.0424 -0.0096                     84 65 58 
-0.1148 -0.4355 0.1808                     72 72 72 
0.3826 0.1111 0.0518                     201 200 199 
-0.0780 0.1295 0.0948                     179 176 175 
-0.0473 0.1234 -0.1938                     176 174 172 
0.0142 -0.3065 0.0518                     71 71 71 
-0.2008 0.3383 -0.1754                     123 90 76 
0.2844 -0.0547 0.1255                     105 80 71 
-0.2438 0.1848 0.1992                     126 93 78 
-0.0534 0.1050 -0.2982                     117 85 72 
0.3335 0.2155 -0.2982                     117 85 72 
0.1677 0.1111 0.3098                     91 67 57 
0.2291 0.2278 0.3220                     110 80 68 
0.3274 -0.0793 -0.2982                     114 86 74 
0.2659 0.1479 0.4080                     117 85 72 
0.0264 0.1295 0.1562                     183 181 179 
-0.1824 0.1725 -0.2859                     119 88 75 
-0.2438 -0.0424 0.1562                     126 91 77 
-0.0227 0.0497 -0.2982                     117 85 71 
-0.2069 0.0927 -0.2737                     150 134 128 
0.2782 0.2769 0.3773                     120 90 78 
-0.0288 -0.0547 0.2668                     103 78 69 
-0.0227 -0.0547 0.0518                     95 67 56 
0.3703 -0.0486 0.2483                     105 80 70 
0.0142 -0.0547 0.2545                     103 79 69 
0.1861 0.1725 0.3098                     105 73 59 
0.1001 0.1234 0.1992                     182 180 178 
-0.0043 0.1295 0.3098                     92 65 55 
0.4440 0.1418 0.3650                     120 90 77 
0.0510 0.2585 0.4019                     125 96 84 
-0.1701 -0.0486 0.3957                     116 83 70 
0.2107 0.1295 -0.2982                     117 85 72 
0.3212 -0.0793 0.3466                     100 75 66 
-0.0657 0.1295 -0.1078                     181 179 177 
0.2844 0.1172 -0.2552                     100 76 66 
0.1922 0.0865 0.4080                     117 85 71 
-0.1885 0.1725 0.1685                     103 73 61 
-0.2008 -0.0363 -0.1754                     45 30 25 
0.4072 0.2032 -0.2675                     122 94 83 
-0.0227 0.1295 0.1562                     180 179 176 
0.3703 0.0743 0.4080                     117 85 71 
-0.2376 0.1479 0.2668                     126 92 78 
0.1124 0.1295 0.0457                     190 189 187 
-0.0780 0.2523 -0.2675                     108 81 71 
0.2844 -0.0547 -0.1754                     104 80 70 
0.2045 -0.0547 -0.1938                     104 79 70 
-0.0534 -0.0547 -0.1631                     103 78 69 
-0.0473 -0.0486 -0.2982                     116 84 71 
-0.2499 0.1234 0.0887                     126 93 78 
0.1308 -0.0547 0.1746                     104 79 70 
-0.2192 -0.0854 -0.0096                     103 78 69 
0.3151 0.1234 0.2238                     189 188 186 
0.0878 0.1295 -0.0526                     189 188 186 
-0.0902 -0.3741 -0.1815                     79 79 78 
-0.2315 0.1295 0.2975                     125 92 78 
0.1922 -0.0547 -0.0280                     102 78 69 
-0.1885 0.1971 0.1746                     106 76 64 
-0.2438 0.1234 0.2238                     126 92 78 
-0.2069 -0.0486 0.0211                     85 60 50 
0.3642 0.0988 0.3098                     158 153 150 
0.1861 0.1172 -0.2368                     166 163 160 
0.2291 0.2401 0.3282                     112 81 69 
-0.1578 0.1050 0.3036                     70 50 42 
-0.1946 0.3567 0.2668                     125 92 78 
0.1922 -0.3188 -0.1140                     69 68 67 
0.2598 0.0620 0.4080                     117 85 71 
-0.0595 -0.0179 0.4080                     117 85 72 
0.1247 -0.0916 0.3773                     110 82 70 
0.1615 0.1479 0.4080                     116 85 71 
0.0387 0.1111 -0.2982                     117 86 72 
0.0940 -0.2205 -0.0526                     68 67 67 
-0.0534 0.2339 0.3220                     101 73 61 
0.3826 -0.0486 -0.1570                     106 81 71 
-0.2069 -0.0670 -0.0771                     91 62 51 
0.0387 0.1111 -0.2982                     117 86 72 
-0.2499 0.1050 0.0334                     126 94 79 
-0.1762 0.1479 -0.2921                     116 83 69 
-0.1946 0.2032 -0.0219                     110 79 67 
0.0264 0.0435 -0.2982                     117 85 72 
0.4256 0.0128 -0.0710                     199 198 197 
-0.2499 0.1418 -0.0956                     127 93 78 
-0.2254 -0.0916 0.1746                     119 89 77 
0.1677 0.2032 0.4080                     117 85 71 
0.1186 -0.0731 0.3466                     96 69 59 
0.2475 -0.0547 -0.0771                     102 78 69 
-0.2438 -0.0363 0.2238                     126 92 77 
0.4318 0.0251 0.1439                     201 200 199 
-0.2376 0.2892 0.2852                     125 91 77 
-0.0718 0.1295 -0.1447                     178 175 173 
-0.0780 0.2585 -0.2675                     119 97 88 
0.2107 -0.0547 -0.1877                     101 74 64 
-0.1701 0.2769 -0.2921                     123 93 81 
0.3765 0.1971 0.3282                     113 82 69 
0.3458 0.1172 -0.1201                     199 198 197 
-0.1639 0.1111 -0.1201                     147 141 138 
-0.0473 -0.3249 -0.1263                     63 61 61 
-0.2376 -0.0056 0.2790                     125 91 77 
0.1063 0.2216 -0.2982                     117 85 72 
0.0694 0.1295 -0.1693                     185 183 181 
-0.2254 -0.0916 -0.0464                     102 77 68 
0.0817 0.1295 0.0764                     188 187 185 
-0.1455 -0.0547 0.0334                     102 78 69 
0.2107 -0.0547 -0.1877                     101 74 64 
0.3458 -0.4600 0.2299                     82 81 81 
0.2598 0.1479 -0.2982                     117 85 72 
-0.2376 0.2523 0.2852                     125 92 77 
-0.0534 0.1234 -0.2061                     169 167 164 
-0.1885 0.1234 0.1746                     98 73 64 
-0.0104 0.1418 -0.2982                     117 85 71 
0.0142 -0.2389 -0.0403                     66 65 65 
0.4195 0.0497 0.3405                     102 75 64 
-0.2376 0.1848 0.2852                     125 92 77 
-0.1701 0.2953 0.3220                     120 88 74 
-0.2008 0.3322 -0.1140                     122 89 75 
0.1493 0.1050 -0.2491                     146 141 137 
-0.0350 0.1111 0.2790                     154 149 146 
0.1984 0.2094 -0.2982                     117 86 72 
-0.2254 -0.0916 -0.0403                     103 79 69 
0.0387 -0.0547 0.1071                     102 78 69 
0.3703 -0.0486 -0.2491                     103 79 70 
-0.2008 -0.0363 0.1562                     35 23 19 
-0.1701 -0.0609 0.3957                     115 82 69 
0.1861 0.0865 0.4080                     117 85 72 
0.2782 -0.0547 -0.0464                     103 79 70 
0.2844 -0.0547 -0.1570                     104 79 70 
0.0940 -0.0670 0.3343                     91 65 56 
0.2107 0.2646 0.3527                     133 111 103 
-0.0657 -0.3433 -0.1386                     65 64 63 
0.2107 0.2708 0.3712                     131 110 102 
0.1063 -0.2574 -0.0342                     70 69 69 
-0.0227 0.2523 -0.2675                     117 93 84 
-0.2499 0.1787 -0.0403                     127 93 78 
0.0510 -0.0731 0.4080                     114 84 72 
-0.0227 0.2216 0.4080                     117 86 72 
0.0203 -0.2819 -0.0526                     67 67 67 
0.0019 0.1111 -0.2982                     116 85 71 
0.1861 -0.0547 -0.0034                     102 78 69 
0.2291 -0.3925 0.1378                     72 72 72 
-0.2499 -0.0056 0.0273                     126 93 79 
0.2598 0.1234 -0.0956                     195 194 193 
-0.1701 0.1050 0.2790                     123 115 111 
0.1370 -0.0547 0.2729                     103 79 70 
0.1493 0.1234 0.4080                     116 85 71 
0.4440 0.1295 0.3834                     147 130 123 
0.2045 0.2216 0.3159                     109 79 67 
0.4195 0.0497 0.3466                     111 82 70 
0.1984 -0.0916 -0.2798                     97 68 57 
0.2659 -0.4293 0.1869                     72 72 72 
0.2844 -0.0916 0.3589                     104 79 69 
0.4072 0.1725 -0.2982                     117 86 72 
-0.1148 -0.0547 0.1255                     98 71 60 
-0.2499 0.1111 -0.0403                     127 93 79 
-0.0043 -0.2574 -0.0587                     56 55 54 
0.1800 -0.0424 -0.2982                     116 85 71 
0.3089 0.1295 -0.2552                     103 71 58 
0.1247 0.1234 0.4080                     117 85 72 
0.3089 -0.4600 0.2238                     72 72 72 
-0.2376 0.1664 -0.2307                     125 91 76 
0.4195 0.1418 -0.2675                     149 134 128 
0.2352 -0.0486 -0.2982                     116 84 70 
0.1247 -0.2574 -0.0710                     60 58 58 
0.0326 0.1418 -0.2982                     116 85 71 
0.2414 0.1234 0.2054                     187 185 184 
0.1738 0.1234 0.2238                     180 177 176 
0.4318 0.0374 -0.2614                     201 200 199 
0.3888 0.0251 -0.2982                     117 85 71 
0.1615 0.0497 0.4080                     117 85 72 
0.2721 -0.0486 0.3098                     100 76 67 
0.0817 0.1725 0.4080                     117 85 72 
-0.0166 0.1295 -0.1386                     182 181 179 
-0.1087 0.1234 -0.0096                     177 174 171 
0.0142 -0.1898 -0.0403                     66 65 65 
0.3212 0.1234 -0.0280                     198 197 196 
0.3581 0.1172 -0.0219                     199 199 197 
0.4133 0.0988 0.2115                     201 200 199 
0.0264 -0.1345 -0.0157                     55 54 53 
0.1800 -0.0547 0.0702                     98 71 60 
0.2045 0.2523 0.3343                     114 85 73 
-0.1517 0.2155 0.4019                     117 85 72 
-0.2192 0.3813 0.1624                     137 114 105 
-0.1701 -0.0486 -0.0771                     100 77 67 
0.1247 0.1295 0.1010                     191 190 189 
-0.1025 -0.0486 -0.2614                     93 71 63 
0.2537 0.1971 0.4080                     116 85 71 
-0.2499 0.2216 -0.1263                     126 93 78 
0.2045 0.2769 0.3712                     125 97 86 
0.3089 -0.0547 -0.1815                     105 80 71 
0.4318 0.0006 -0.0956                     128 96 81 
0.2659 0.1602 0.3159                     106 73 60 
0.0878 0.1295 -0.0833                     190 188 186 
0.3151 0.0681 -0.2982                     116 85 71 
-0.2499 0.0743 -0.0464                     127 94 79 
0.4379 0.0313 0.0334                     204 203 202 
-0.0841 -0.0547 -0.0894                     101 77 69 
-0.2069 0.3690 -0.0956                     127 95 82 
-0.1394 -0.0547 -0.1140                     102 78 69 
0.0756 0.0067 0.4080                     117 85 71 
-0.0964 0.1234 -0.0280                     178 175 173 
0.1124 -0.2205 -0.0034                     70 70 70 
-0.0964 -0.3618 0.1255                     80 80 80 
0.1800 0.1295 -0.0649                     192 191 189 
0.2598 0.1234 0.0088                     195 194 193 
-0.2008 0.3690 -0.1877                     126 93 79 
0.1186 -0.2635 -0.0771                     59 57 57 
0.0940 -0.0547 -0.0710                     87 62 52 
-0.1639 0.1602 -0.2430                     90 61 49 
0.4133 0.0497 0.3405                     86 63 53 
0.0326 -0.1161 0.0027                     58 56 56 
-0.0473 0.1295 0.1317                     179 178 176 
-0.1332 0.1172 -0.2245                     153 148 145 
-0.1762 0.3076 0.3343                     124 91 78 
-0.1885 0.2401 -0.1938                     110 79 66 
-0.1885 0.2892 -0.1938                     117 84 71 
-0.1885 0.3076 -0.2245                     118 85 71 
0.0326 0.1234 -0.2245                     165 162 160 
0.4318 0.2094 0.4019                     150 134 129 
0.0326 -0.2144 0.0211                     65 64 63 
-0.0104 -0.0547 0.1685                     103 79 70 
-0.1946 0.3322 -0.2061                     121 89 74 
0.4318 0.0006 -0.2737                     127 102 93 
0.2537 0.1050 -0.2430                     156 151 148 
0.3212 0.0006 0.4080                     117 85 71 
-0.1824 0.0988 -0.0587                     131 123 119 
0.2659 0.0006 0.4080                     116 85 71 
0.0019 -0.2881 0.0088                     68 68 68 
0.4072 -0.0486 -0.1263                     106 81 71 
0.3396 0.2462 -0.2982                     119 87 74 
0.3519 -0.0486 -0.2368                     104 80 70 
-0.0534 0.2708 0.3650                     130 109 102 
0.1063 0.0006 0.4080                     116 85 71 
-0.0350 0.2769 -0.2798                     99 71 61 
-0.2254 0.3875 -0.1631                     125 94 82 
-0.2069 0.3629 0.0027                     126 93 79 
0.2291 0.2646 0.3527                     133 112 104 
-0.2008 0.3199 0.0887                     121 88 74 
-0.1946 0.1357 -0.0710                     105 79 69 
0.0878 0.1787 0.4080                     117 85 71 
-0.2499 0.0927 0.0273                     127 93 79 
-0.2499 0.2646 0.0211                     127 94 79 
0.1370 -0.3188 0.0825                     74 74 74 
0.3888 -0.0486 -0.0157                     105 81 71 
0.3949 0.1357 -0.2982                     117 85 72 
0.2475 0.1295 -0.1078                     194 193 191 
-0.1332 -0.0547 -0.0342                     101 78 69 
-0.0964 -0.0547 0.2790                     101 77 69 
-0.2499 0.1787 -0.0034                     127 94 79 
-0.1946 -0.0363 -0.2859                     147 131 125 
-0.1946 -0.0486 -0.0833                     90 70 62 
-0.0780 0.1295 -0.1447                     177 174 172 
-0.1885 -0.0486 -0.0587                     96 74 66 
0.1063 -0.2635 -0.0342                     70 69 69 
-0.0411 -0.3126 0.0580                     75 75 75 
0.0694 -0.0179 -0.2982                     116 84 71 
-0.1517 -0.4907 0.2729                     82 81 81 
-0.2499 0.1909 0.1194                     127 94 78 
-0.0166 0.1725 0.4080                     117 85 72 
-0.0902 -0.3802 0.1439                     70 69 69 
-0.0288 0.1295 -0.2982                     117 85 71 
-0.0166 0.2278 0.3159                     102 74 63 
-0.2499 0.1234 0.0150                     126 93 78 
-0.2499 0.2339 -0.1078                     126 93 78 
-0.0227 -0.0547 -0.1877                     104 79 70 
0.0080 0.1295 -0.1877                     179 178 175 
0.0203 0.1111 -0.2368                     157 153 150 
0.0203 -0.2267 -0.0526                     63 62 62 
-0.2499 0.2892 0.0518                     127 94 79 
-0.1946 0.0927 -0.1386                     77 54 45 
0.3519 -0.0486 -0.0956                     105 80 71 
-0.1946 0.1848 -0.0342                     108 78 65 
-0.2499 0.0313 0.1439                     126 94 78 
-0.1701 0.3015 0.3527                     119 90 79 
-0.2499 0.1909 -0.1570                     126 93 78 
-0.0534 0.2094 -0.2982                     117 86 72 
-0.1762 -0.0854 0.3405                     81 58 50 
0.3581 -0.0486 0.1439                     106 81 71 
-0.1455 -0.0547 0.0518                     102 78 69 
0.0571 -0.0424 -0.2982                     115 83 70 
-0.2069 0.3690 0.1746                     126 94 80 
0.1615 -0.3065 0.0887                     64 63 62 
-0.2131 -0.0670 -0.0342                     97 71 62 
0.3765 -0.0486 0.0580                     106 81 71 
-0.1885 0.2892 0.2299                     117 84 72 
-0.1332 0.1234 -0.0157                     167 163 161 
0.1984 -0.0916 -0.2798                     97 68 57 
-0.1210 0.1111 0.2790                     145 140 137 
-0.2499 0.0435 -0.0219                     127 94 79 
0.1063 0.2523 0.3282                     111 81 70 
-0.2376 -0.0731 0.2361                     121 89 76 
0.1308 -0.0117 -0.2982                     117 85 71 
-0.2008 0.3383 -0.0403                     122 90 76 
-0.2438 0.2278 0.2422                     126 93 78 
0.2721 0.1234 -0.0403                     195 194 193 
0.4502 0.1787 0.3712                     125 93 80 
-0.0473 -0.3495 0.0702                     71 71 71 
0.1431 -0.0547 0.2422                     104 79 70 
0.0817 0.0497 0.4080                     117 85 72 
-0.1946 0.1234 0.0702                     102 76 66 
-0.0841 0.2462 -0.2982                     118 86 73 
-0.1824 0.0988 0.0088                     130 122 117 
0.2966 0.2462 -0.2982                     118 86 73 
0.3396 -0.0547 0.0150                     105 80 70 
0.3274 -0.0547 0.1010                     105 80 71 
0.4318 0.0804 0.1931                     204 204 203 
0.0203 -0.2021 -0.0096                     62 61 61 
0.2844 0.0006 -0.2982                     117 86 72 
-0.1762 0.2953 0.2913                     117 85 72 
-0.0166 -0.0301 0.4080                     116 84 71 
0.1186 0.1602 -0.2982                     117 85 71 
0.0142 0.0804 0.4080                     117 85 71 
-0.0902 -0.0547 0.0825                     99 72 62 
-0.2499 0.2523 -0.1693                     127 93 78 
-0.1087 -0.4170 0.1562                     71 71 71 
0.0940 -0.0547 -0.2245                     104 79 70 
-0.2069 0.0681 -0.2737                     149 133 127 
-0.2131 0.0927 -0.2675                     133 107 98 
0.4318 -0.0547 0.3589                     115 83 71 
0.1493 0.1295 0.1132                     191 190 188 
-0.1946 0.2032 -0.1447                     109 78 66 
0.1186 -0.2451 -0.0526                     59 58 57 
-0.2254 0.1295 -0.2614                     147 129 122 
-0.2008 -0.0424 0.2483                     63 43 36 
-0.2499 0.2831 -0.1386                     127 94 79 
-0.2438 0.0251 -0.1815                     126 93 78 
-0.1025 0.1234 -0.2491                     86 62 54 
0.1431 -0.0977 0.3712                     95 69 59 
-0.0043 -0.0547 0.0887                     102 78 69 
0.2107 0.0313 0.4080                     117 85 72 
0.1431 0.1971 -0.2552                     105 72 58 
-0.0841 0.2646 0.3466                     126 106 99 
-0.1946 0.1357 0.1439                     102 77 67 
0.0019 -0.2819 -0.1017                     68 68 67 
0.1063 -0.0547 0.2483                     103 79 69 
-0.2069 0.3813 0.2238                     135 109 98 
0.3151 -0.0547 -0.0219                     104 79 70 
0.4010 -0.0486 0.2545                     106 81 71 
-0.2254 0.3875 0.1746                     108 80 69 
0.4379 0.0497 0.1255                     204 204 203 
0.0633 0.1295 0.0211                     188 187 185 
0.0203 0.1295 -0.1508                     183 181 179 
-0.0780 0.1234 0.2545                     162 158 156 
-0.2499 0.0558 0.0273                     127 93 78 
0.1370 -0.0916 -0.2859                     112 85 73 
-0.2131 -0.0854 -0.1815                     102 75 65 
0.1861 -0.3126 0.0825                     67 66 65 
0.4318 0.0681 0.3220                     203 202 201 
0.3826 0.1050 -0.0157                     200 200 198 
0.2291 0.1172 0.3098                     101 77 68 
-0.2008 -0.0301 0.0273                     45 30 24 
0.0633 0.2462 0.4080                     118 87 73 
0.4379 0.0743 -0.0833                     204 204 204 
0.3396 -0.0547 -0.1078                     104 79 70 
-0.0534 0.1664 -0.2491                     92 62 50 
-0.2192 -0.0301 -0.2675                     134 111 102 
-0.0043 0.2094 -0.2982                     117 85 72 
-0.1946 0.1357 -0.1693                     100 74 64 
0.3212 0.1234 -0.0587                     196 196 194 
-0.1885 0.0927 -0.1877                     138 136 133 
-0.1762 0.2892 0.3773                     130 104 95 
-0.0043 -0.3004 0.0211                     69 69 69 
0.1615 -0.0547 0.3036                     100 76 67 
0.3396 -0.0547 -0.1386                     104 80 70 
0.1308 0.1295 -0.0096                     192 191 190 
-0.1578 0.1172 -0.1693                     153 148 145 
-0.2376 0.1357 -0.2122                     126 91 77 
-0.2131 -0.0916 -0.2307                     104 80 71 
0.2782 0.1234 0.0764                     195 194 193 
-0.2438 -0.0486 -0.1570                     124 91 76 
0.0142 0.2646 -0.2982                     132 108 98 
0.3642 -0.0486 -0.2122                     106 81 71 
0.1984 -0.3372 0.1132                     69 67 67 
0.3888 0.1909 0.4080                     117 86 72 
-0.1824 0.3260 0.3466                     139 118 110 
0.2168 0.2278 0.3220                     110 80 67 
-0.0964 0.1909 -0.2491                     91 61 49 
0.1800 0.1111 -0.2368                     163 160 157 
0.1800 0.1295 -0.1693                     189 187 186 
0.1247 0.1541 -0.2982                     117 86 72 
-0.2499 0.3138 0.1010                     127 94 79 
-0.1946 0.2401 0.0273                     113 82 69 
-0.1148 0.2708 0.3527                     126 104 97 
-0.1762 0.2831 -0.2430                     151 137 133 
0.0326 0.1111 0.2913                     147 141 139 
0.2782 0.2585 -0.2675                     129 106 97 
0.2598 0.1295 -0.0894                     195 194 193 
-0.2254 -0.0916 0.2422                     118 88 76 
0.1984 -0.0547 -0.1508                     101 75 64 
-0.0288 0.1541 0.4080                     116 85 71 
-0.0534 -0.0854 -0.2737                     97 71 62 
-0.1946 0.2708 -0.1386                     116 84 71 
-0.1885 -0.0793 0.3712                     106 76 64 
-0.0718 0.1848 0.3098                     93 62 50 
-0.2499 0.0006 -0.0464                     127 93 78 
0.1308 -0.3188 -0.1140                     71 71 71 
-0.1946 0.2585 0.0702                     115 83 71 
-0.2499 0.0190 0.0641                     127 93 79 
0.4318 -0.0424 -0.1263                     122 89 74 
0.1247 0.1050 0.2975                     137 131 128 
-0.2008 -0.0424 -0.1631                     84 65 59 
0.4256 0.0313 0.3282                     200 199 197 
-0.1517 0.1664 -0.2491                     85 56 45 
0.1308 0.1050 -0.2982                     116 85 71 
0.3335 0.2523 -0.2982                     119 88 74 
-0.1210 0.0251 0.4080                     116 85 71 
0.3888 -0.0486 -0.1693                     106 81 71 
0.2045 -0.0547 -0.1140                     102 78 69 
-0.2376 0.2339 0.2913                     126 92 78 
0.2107 -0.0486 0.3282                     78 59 53 
0.4133 -0.0486 -0.0771                     107 81 72 
-0.0043 -0.0547 0.0518                     100 75 66 
0.0878 -0.0916 0.3773                     111 84 74 
-0.0964 0.1295 0.3098                     86 61 51 
0.3028 -0.0547 0.1931                     100 72 61 
-0.1087 0.1111 -0.2430                     137 131 128 
-0.1025 -0.3925 0.1317                     80 80 80 
0.1063 0.1295 -0.0280                     191 189 188 
0.2414 0.1295 -0.0771                     194 193 192 
-0.1578 0.1172 0.0887                     153 148 145 
0.0326 0.2339 -0.2982                     117 86 72 
0.0019 0.1234 0.2115                     177 174 172 
-0.2376 0.0128 0.2545                     126 92 78 
-0.1578 -0.0547 -0.0649                     101 78 69 
-0.1824 0.2646 -0.2859                     117 85 70 
0.2537 -0.0547 0.0395                     103 79 70 
0.2291 0.2585 0.3405                     123 98 89 
0.1922 -0.0793 -0.2921                     112 85 74 
0.0203 -0.3004 0.0457                     70 70 70 
0.2782 -0.3925 -0.1815                     82 82 82 
-0.2008 0.3445 -0.1877                     123 90 76 
0.1493 -0.0486 0.3282                     94 72 64 
0.2168 -0.3802 -0.1386                     71 71 71 
-0.1639 -0.0486 0.1685                     100 76 67 
-0.0841 0.1295 -0.1508                     175 173 171 
0.4072 0.0988 0.2483                     200 199 198 
0.4133 0.0927 -0.2122                     182 181 179 
0.0940 0.2094 0.4080                     117 86 72 
0.0878 -0.2082 -0.0587                     66 66 64 
-0.0473 -0.0731 0.4019                     115 86 73 
0.3396 0.2094 0.3220                     111 78 64 
0.1493 0.1295 -0.1693                     189 187 186 
-0.0104 0.2032 -0.2552                     100 68 55 
-0.2315 0.2892 0.2975                     125 92 78 
0.0449 0.1295 0.0211                     187 186 184 
0.2844 0.1234 -0.1447                     193 192 190 
-0.1946 0.0865 -0.1140                     51 34 28 
0.1922 -0.0547 -0.0833                     101 78 69 
0.3028 0.1234 -0.1447                     194 193 192 
0.4072 0.1602 0.3343                     116 83 70 
0.1124 0.2155 -0.2982                     116 85 71 
-0.2376 -0.0854 0.0641                     117 88 77 
0.0694 -0.0793 -0.2737                     101 77 68 
-0.2192 -0.0977 0.2790                     119 89 77 
0.1677 0.1295 -0.1877                     186 184 182 
0.2414 0.0988 0.4080                     117 85 71 
0.4318 -0.0609 0.3896                     136 115 108 
0.2598 0.1234 0.2115                     188 187 185 
0.0817 0.1172 0.4080                     117 85 72 
0.4379 0.0497 0.1255                     204 204 203 
0.4010 -0.0731 0.3957                     117 90 79 
-0.0534 -0.0609 -0.2614                     89 65 57 
-0.0780 -0.3925 0.1378                     72 72 72 
0.1615 0.1295 0.1010                     191 190 188 
0.2905 0.1234 -0.0833                     196 195 193 
-0.2192 0.0313 0.3282                     124 93 79 
0.3396 0.1725 -0.2552                     111 78 63 
0.2721 -0.4232 0.1624                     71 71 71 
0.3703 -0.0486 0.1194                     106 81 71 
-0.0902 -0.3986 0.1624                     79 79 79 
0.1370 0.1295 0.0764                     191 190 188 
0.0387 -0.1223 -0.0526                     59 57 57 
0.1738 -0.3618 -0.1324                     71 71 71 
-0.1332 -0.0547 -0.0464                     102 78 69 
-0.0780 -0.3433 -0.1386                     72 70 70 
0.0449 0.1295 0.1071                     186 185 183 
-0.2499 0.1050 0.1501                     126 92 78 
-0.0166 -0.2819 -0.0894                     56 54 54 
0.0326 0.1234 0.2361                     175 172 170 
-0.0288 0.1234 0.2545                     167 164 162 
0.1554 0.1234 0.3098                     100 75 65 
-0.1946 0.1602 0.0887                     104 74 62 
0.4133 0.0988 -0.1693                     201 201 199 
0.2107 -0.3433 -0.1447                     80 80 80 
0.0694 0.2155 -0.2982                     117 85 72 
0.1370 0.2339 0.4080                     117 85 72 
-0.1946 0.3199 -0.1938                     120 87 73 
-0.1271 -0.4539 0.2176                     71 71 71 
-0.0595 -0.0547 0.0580                     94 66 54 
0.2168 0.1295 -0.0034                     194 193 192 
0.4379 0.0313 0.2238                     203 203 201 
0.2230 0.1295 -0.0096                     194 193 191 
0.1063 0.1172 0.4080                     117 85 72 
0.4318 0.0804 0.2913                     204 203 202 
0.2598 -0.0854 0.3527                     104 78 69 
0.0694 -0.0363 0.4080                     116 85 71 
-0.2499 0.0681 -0.0649                     127 93 79 
-0.1087 -0.0547 -0.2000                     101 76 66 
0.3335 0.1479 -0.2982                     117 85 72 
0.3335 -0.0547 -0.0894                     105 80 70 
0.4195 0.2216 -0.2982                     118 86 72 
-0.0657 0.1111 -0.2491                     81 59 50 
-0.2438 -0.0670 0.0150                     124 91 77 
-0.1455 0.2585 0.3343                     104 75 64 
-0.1885 0.3383 0.2975                     126 93 79 
0.1861 0.1234 -0.2061                     183 181 179 
-0.0166 0.2585 0.3405                     122 99 90 
0.3089 0.1234 -0.0219                     197 196 195 
0.0080 -0.2389 -0.0464                     59 57 56 
0.1922 0.2401 -0.2982                     118 86 72 
0.4010 -0.0424 -0.2982                     116 85 71 
0.2230 -0.4048 0.1562                     72 72 72 
0.1308 -0.2819 -0.0894                     58 57 56 
0.3888 0.1172 0.4080                     116 85 71 
-0.1885 0.3260 0.2238                     121 88 74 
-0.2499 0.0620 -0.1017                     126 93 78 
-0.1701 0.2216 0.3957                     117 85 71 
-0.2499 0.1172 -0.1078                     126 93 78 
0.0203 -0.0793 -0.2737                     102 77 68 
0.3396 0.1234 0.4080                     116 85 71 
0.0940 -0.0547 0.2668                     102 78 69 
0.0571 -0.1898 -0.0464                     45 45 45 
-0.1946 0.2953 -0.1447                     118 86 72 
-0.1394 -0.0547 -0.2368                     100 76 67 
0.0142 -0.2512 -0.0710                     54 52 52 
0.1554 0.2769 0.3773                     119 89 76 
0.4318 -0.0424 0.2975                     124 93 79 
0.3765 -0.0486 0.1378                     105 80 71 
0.2168 -0.0547 0.3036                     100 76 68 
0.3396 -0.0547 0.1071                     105 80 71 
-0.2438 0.1418 0.1869                     126 93 78 
-0.1946 0.2953 0.1255                     118 86 72 
0.3458 0.0006 -0.2982                     117 85 71 
-0.2008 0.3567 -0.0342                     125 92 78 
0.0387 -0.2021 -0.0587                     65 64 63 
0.2291 0.1295 0.1439                     191 190 188 
0.0449 -0.0547 -0.2491                     101 78 68 
0.0940 -0.2144 -0.0219                     50 49 49 
0.2966 -0.4293 -0.2000                     82 82 82 
-0.2499 0.1971 0.1624                     127 93 79 
-0.2499 0.1541 -0.1693                     126 93 78 
-0.2376 -0.0179 -0.2368                     124 90 75 
0.1615 -0.2942 -0.0894                     78 78 77 
0.4379 -0.0240 0.2975                     126 91 77 
0.1861 -0.0916 0.3773                     111 82 70 
0.3581 -0.0056 -0.2982                     117 85 72 
-0.2254 -0.0977 0.2115                     120 87 74 
0.1800 0.1172 0.2668                     170 167 165 
-0.0964 -0.0547 0.2299                     103 78 69 
0.1186 0.2462 0.3282                     110 80 68 
-0.0964 -0.4170 -0.1754                     71 71 71 
-0.1946 0.1971 0.1010                     107 78 65 
-0.1701 0.1295 -0.2430                     96 71 63 
-0.2438 0.1357 -0.1815                     126 92 78 
-0.2008 -0.0363 -0.0833                     53 35 28 
0.3519 0.1787 -0.2982                     117 85 72 
0.1124 -0.2758 -0.0464                     73 72 72 
0.0449 0.1295 -0.0710                     187 185 184 
0.0326 0.0128 0.4080                     117 85 72 
0.0940 0.1295 0.0211                     189 188 186 
0.2291 0.0251 -0.2982                     116 85 71 
0.1247 -0.2758 -0.0894                     57 55 54 
0.0080 -0.0609 -0.2982                     115 83 69 
0.2107 0.1295 -0.0342                     192 191 189 
0.3949 -0.0486 -0.2430                     105 80 71 
0.2230 0.2769 -0.2859                     121 92 79 
-0.1271 0.2278 0.3159                     96 69 58 
-0.2254 0.0251 -0.2552                     137 119 112 
0.2291 0.1664 -0.2491                     105 72 58 
-0.1271 -0.0486 0.3036                     97 75 66 
-0.0043 -0.0854 -0.2798                     102 78 69 
0.0019 0.1295 0.0764                     185 183 181 
0.1677 -0.0486 -0.2982                     116 84 71 
-0.1946 0.3199 0.1132                     121 88 74 
-0.0964 0.1295 -0.1324                     176 173 171 
-0.2499 -0.0056 0.0027                     126 92 78 
-0.0657 0.1111 0.2913                     140 135 132 
0.3581 0.0251 -0.2982                     117 85 72 
0.1922 0.1295 -0.0587                     192 191 189 
-0.1885 0.2585 0.2361                     112 80 67 
-0.2315 -0.0424 0.2975                     124 91 77 
-0.2376 0.1909 0.2606                     126 92 78 
0.2905 0.1234 -0.0710                     195 195 193 
0.1308 -0.0547 -0.0403                     99 75 66 
0.0756 -0.0916 0.3650                     101 77 68 
0.0694 0.1295 -0.0649                     188 187 185 
0.1431 0.2032 -0.2982                     117 85 72 
0.0633 0.1111 -0.2368                     158 155 152 
0.4195 -0.0486 -0.0342                     110 84 74 
0.3028 -0.0486 0.3282                     93 71 63 
-0.0288 0.2708 -0.2921                     136 114 106 
-0.2069 -0.0793 0.2852                     101 76 65 
-0.2499 0.2892 -0.0526                     127 94 79 
0.2475 0.2585 0.3405                     125 101 92 
-0.0964 0.1418 0.4080                     116 85 71 
0.3703 0.0497 0.4080                     116 85 71 
0.1431 -0.2881 0.0641                     61 59 59 
-0.1271 0.2769 0.3650                     104 77 66 
0.4379 0.0006 -0.0034                     129 96 81 
0.2659 0.1541 0.3159                     105 73 59 
0.2107 -0.3433 0.0948                     81 81 80 
-0.0595 -0.3741 -0.1386                     71 71 71 
0.0449 0.1295 0.0764                     186 185 183 
-0.2008 0.3199 -0.0342                     120 88 74 
0.1370 0.2462 -0.2982                     119 87 74 
-0.2315 0.3875 0.0027                     130 102 91 
0.1431 -0.3065 0.0273                     76 75 75 
-0.0288 -0.0547 0.1992                     103 79 70 
0.1554 0.2339 -0.2614                     110 80 68 
-0.1087 0.1234 0.2545                     158 154 152 
0.2045 0.1295 0.0334                     192 191 190 
0.0756 -0.0670 0.3405                     90 62 51 
-0.2499 -0.0117 -0.1570                     126 92 78 
0.1370 -0.0609 0.4080                     115 83 69 
-0.0964 -0.0547 -0.2184                     103 79 70 
0.4133 0.1848 0.4080                     117 84 70 
0.4256 0.0190 -0.0833                     201 200 199 
0.0080 -0.0547 0.2299                     104 79 70 
0.0080 -0.2819 0.0088                     70 70 70 
-0.0043 0.2523 0.4080                     119 87 74 
