ply
format ascii 1.0
comment VCGLIB generated
element vertex 891
property float x
property float y
property float z
property uchar red
property uchar green
property uchar blue
element face 0
property list uchar int vertex_indices
end_header
0.2850 0.1146 0.2786                     204 204 202 
0.0025 -0.2600 0.0391                     78 78 78 
0.0946 0.2005 -0.2496                     106 73 59 
0.0270 -0.2723 -0.1022                     65 63 63 
0.0885 -0.3276 0.1250                     70 69 69 
-0.3476 0.3664 0.0943                     122 89 75 
0.0148 -0.2785 0.0452                     78 78 78 
-0.2616 -0.3706 0.1926                     80 80 80 
-0.3476 0.3786 0.1557                     124 91 77 
0.2911 0.0777 0.0145                     204 204 203 
0.2788 0.1821 0.3461                     120 89 75 
-0.1019 0.2681 0.3277                     107 78 66 
-0.3476 0.3725 0.0268                     123 90 76 
-0.3721 0.4216 -0.0224                     131 102 91 
-0.3353 0.2804 0.1742                     112 81 68 
0.1621 0.1821 0.3154                     106 73 60 
-0.3721 0.4216 -0.1083                     139 117 109 
-0.3414 0.2558 0.0206                     111 80 68 
0.2665 -0.0144 -0.0285                     108 82 72 
0.2911 0.0040 0.0452                     125 92 76 
0.2911 0.1084 -0.1636                     204 204 204 
-0.3353 0.2804 -0.1882                     110 79 67 
0.2543 0.1330 0.1250                     200 199 198 
0.2911 0.0224 -0.0162                     128 95 81 
0.2850 -0.0083 -0.0101                     124 90 76 
-0.3476 0.3909 0.2294                     124 91 77 
-0.0037 -0.2539 -0.0960                     59 57 57 
0.2911 0.0716 0.2540                     203 202 201 
0.1560 0.1637 0.3154                     103 73 61 
0.2543 0.2681 -0.2680                     114 82 68 
0.2358 0.2128 -0.2619                     112 80 66 
-0.2370 -0.3337 -0.1820                     78 78 78 
0.2788 0.0532 -0.0101                     196 195 194 
-0.3414 0.2251 -0.0162                     108 78 66 
-0.3414 0.3234 -0.1759                     117 84 71 
0.2911 0.0777 -0.0039                     204 204 204 
0.2788 0.0470 0.0452                     203 202 200 
0.2788 0.1207 0.1250                     203 203 201 
-0.0405 -0.1004 -0.0346                     64 64 63 
0.2911 0.0716 -0.2189                     204 204 202 
-0.3537 0.3971 0.1496                     126 93 78 
0.2911 0.0839 0.2970                     204 204 203 
-0.1265 0.2558 0.3154                     104 75 63 
0.1007 0.2558 -0.2557                     111 80 68 
0.2911 0.0716 -0.0285                     204 204 203 
0.2911 0.0839 0.1373                     204 204 203 
-0.0896 0.2927 0.3400                     120 95 85 
0.2911 0.0839 -0.0408                     204 204 204 
0.2911 0.0286 -0.0101                     128 95 81 
0.2665 0.2742 -0.2680                     152 138 133 
-0.1695 0.1944 0.3093                     94 63 51 
0.2911 -0.0021 -0.1575                     124 90 75 
0.2850 0.1084 0.1619                     204 204 204 
0.2481 -0.0205 -0.2680                     102 77 68 
0.2911 0.0839 -0.1083                     204 204 204 
0.2850 0.0347 0.1619                     129 97 83 
-0.3476 0.3909 0.0636                     126 92 78 
0.1990 0.2190 -0.2557                     111 79 65 
-0.3414 0.3418 -0.1575                     119 86 73 
0.2911 0.1084 -0.1513                     204 204 204 
-0.3353 0.2190 0.1496                     105 75 63 
0.2481 0.2742 0.3338                     115 83 70 
0.1253 0.1760 0.3154                     103 71 57 
0.0393 0.1698 -0.2496                     97 68 56 
-0.3537 0.4032 -0.1820                     126 94 79 
0.2911 0.1023 -0.2434                     204 204 204 
-0.0405 -0.1802 0.0022                     71 70 70 
0.2604 0.1330 -0.2004                     201 201 199 
0.2911 0.1084 -0.2496                     204 203 202 
0.2358 0.1453 -0.0408                     201 201 199 
0.1621 0.1637 0.3154                     103 73 60 
0.0148 0.2620 0.3216                     108 79 67 
0.2788 0.0409 -0.0039                     123 97 87 
0.2850 0.1146 -0.2189                     204 204 204 
0.0516 -0.3092 -0.1452                     67 66 65 
0.2604 0.1330 -0.0285                     203 202 201 
0.2911 0.0839 -0.1759                     204 204 203 
-0.3599 0.4093 0.1189                     137 111 101 
0.2911 0.0286 -0.2189                     128 95 80 
0.2911 -0.0021 0.2172                     124 91 76 
0.2911 0.0961 -0.1943                     204 204 204 
-0.1695 0.1883 0.3093                     93 62 50 
0.1376 -0.0512 0.3523                     104 78 68 
0.2543 -0.0267 -0.2680                     113 89 80 
-0.3353 0.3049 0.2049                     114 82 69 
-0.3353 0.3602 0.2663                     121 88 74 
0.2911 0.0102 -0.1575                     127 94 79 
-0.3476 0.3786 0.0943                     123 90 77 
-0.0159 -0.2478 0.0636                     60 58 58 
-0.3046 0.2742 0.3154                     92 65 54 
-0.2247 -0.3399 0.1373                     78 78 78 
0.1867 0.2312 0.3216                     112 78 64 
0.2850 0.0593 0.2110                     201 200 199 
0.2850 0.1084 -0.2189                     204 204 204 
-0.3414 0.2742 0.0268                     113 82 69 
0.2911 0.0654 -0.0224                     204 204 202 
0.2420 0.2681 0.3338                     114 83 70 
0.1130 0.2558 0.3216                     110 79 67 
0.2850 -0.0083 -0.1206                     123 90 77 
-0.0037 -0.2478 -0.0715                     76 75 75 
0.2911 0.0286 -0.1206                     128 95 81 
0.2911 0.0961 -0.1513                     204 204 204 
0.2911 0.0102 -0.0592                     127 93 79 
0.2788 -0.0083 -0.2250                     111 84 74 
0.2665 0.1268 0.1005                     199 199 197 
0.2911 0.0224 -0.1513                     128 95 80 
0.2481 0.2190 0.3277                     114 82 69 
-0.2063 0.1883 -0.2496                     90 60 48 
-0.3537 0.4093 -0.0346                     132 104 92 
-0.0405 -0.1495 -0.0039                     71 71 71 
0.2850 0.0593 -0.2004                     202 202 200 
0.1314 0.1576 0.3154                     103 76 65 
0.2665 -0.0144 -0.0039                     108 82 72 
-0.2616 -0.3767 0.2049                     80 80 80 
0.1130 0.2374 -0.2557                     110 76 62 
0.2665 0.1268 0.1803                     199 198 197 
-0.0712 -0.0758 -0.0531                     55 53 53 
0.2911 0.0654 0.0206                     203 203 201 
-0.3291 0.3541 -0.2557                     125 92 78 
0.2911 0.0716 0.0698                     204 204 203 
0.2727 0.1084 0.3461                     114 84 72 
0.1867 -0.0267 0.3338                     95 70 60 
0.2911 0.0716 -0.1697                     204 203 202 
0.2911 0.0777 0.2663                     204 204 203 
0.2911 0.0961 0.2172                     204 204 204 
0.0700 0.2251 -0.2557                     106 74 60 
-0.3476 0.3664 0.0759                     122 89 75 
-0.3537 0.3971 -0.0592                     126 93 79 
0.2911 0.0716 -0.2373                     204 203 202 
0.0332 0.2005 -0.2496                     103 71 57 
0.2911 -0.0021 -0.2434                     124 89 75 
0.2911 0.0163 0.0268                     127 94 79 
0.2727 0.1883 -0.2680                     151 136 130 
0.2911 0.0224 -0.2496                     126 93 78 
0.2911 0.0286 -0.0653                     128 95 81 
0.2850 0.0347 0.2479                     128 94 80 
0.2850 0.0347 -0.1636                     129 96 82 
0.1806 0.1514 -0.2557                     105 79 69 
0.2051 0.1514 -0.1636                     198 197 196 
-0.0896 0.2374 -0.2557                     102 70 57 
0.2911 0.0961 -0.0838                     204 204 204 
0.2850 0.0347 -0.2496                     128 95 82 
-0.3414 0.2251 -0.0531                     109 78 65 
-0.3414 0.3786 0.2724                     124 90 76 
0.2174 0.1514 -0.2557                     106 75 62 
0.2911 0.0900 -0.0960                     204 204 204 
-0.3476 0.3664 -0.1513                     122 89 75 
-0.1388 -0.2600 0.0636                     72 71 71 
0.2788 -0.0083 0.0698                     112 85 74 
0.2911 -0.0021 0.0882                     124 90 75 
-0.3414 0.3725 0.2356                     123 89 75 
0.2481 0.1391 0.2110                     200 199 197 
0.2665 0.0654 -0.2680                     83 61 51 
0.2911 0.0654 -0.2496                     203 202 201 
-0.3414 0.2681 0.0329                     113 81 68 
0.0700 -0.3276 0.1005                     81 80 80 
0.2850 0.0347 0.0575                     129 97 83 
0.2911 0.0224 0.3338                     124 91 76 
0.2911 0.0839 0.0452                     204 204 203 
0.2911 0.0040 0.1926                     125 91 77 
-0.1879 0.2374 -0.2557                     98 67 55 
0.2911 0.0654 0.1680                     203 203 201 
-0.3414 0.2681 0.1189                     112 81 67 
-0.0159 0.1760 -0.2496                     96 66 53 
-0.1695 0.2312 -0.2557                     97 67 54 
-0.3414 0.2988 -0.0162                     116 84 71 
-0.3353 0.2435 -0.2004                     104 74 62 
0.2788 0.1268 -0.1206                     199 198 197 
-0.3353 0.2374 -0.2127                     102 72 60 
0.0885 -0.3337 0.1435                     72 72 72 
-0.0344 0.2804 -0.2619                     110 80 69 
-0.3414 0.3111 0.1373                     116 84 71 
-0.3414 0.2558 -0.0838                     112 80 67 
0.2236 0.2497 -0.2619                     113 81 67 
-0.2247 0.2497 0.3154                     97 69 58 
0.2727 0.1821 0.3400                     119 88 75 
-0.3414 0.3418 -0.0653                     119 87 73 
0.2850 0.0593 -0.2250                     203 202 201 
0.2788 0.1207 0.2049                     203 202 201 
-0.3353 0.2681 -0.1882                     109 78 65 
0.2788 0.0716 -0.2680                     144 129 123 
0.2911 0.0102 -0.2312                     127 94 79 
-0.3291 0.3602 0.3216                     126 93 79 
0.2911 0.0224 0.2049                     127 94 79 
0.2604 0.1391 0.3277                     109 78 65 
0.2911 0.0777 -0.1268                     204 204 203 
-0.0528 -0.1741 0.0145                     70 69 69 
0.2911 0.1023 -0.2496                     204 204 204 
-0.3537 0.4093 -0.2373                     134 107 96 
0.2911 0.0716 0.1250                     204 203 202 
-0.0037 -0.2539 -0.0960                     59 57 57 
0.2481 0.1453 -0.2619                     109 78 64 
0.2358 0.1453 0.1312                     200 200 198 
0.2665 0.1391 0.3338                     112 81 68 
0.2850 0.0593 0.2110                     201 200 199 
-0.3414 0.3295 0.1066                     118 86 72 
-0.3414 0.2128 -0.0838                     107 76 64 
-0.0159 -0.2416 -0.0592                     75 74 74 
-0.3414 0.2312 -0.1145                     108 78 65 
0.2911 0.0163 -0.1882                     127 94 79 
0.2788 0.1207 -0.1513                     204 203 202 
0.2911 0.0961 -0.1820                     204 204 204 
-0.3169 0.2558 -0.2434                     104 73 61 
-0.3476 0.3909 0.1066                     125 92 78 
0.2665 -0.0205 0.3461                     100 71 59 
0.2911 -0.0021 -0.2434                     124 90 75 
0.2911 0.0716 -0.2066                     204 204 202 
-0.1511 -0.2600 -0.1022                     73 72 72 
0.2788 -0.0083 -0.1943                     112 85 74 
-0.3476 0.3725 -0.1575                     122 89 75 
0.2665 0.1268 -0.1943                     200 199 198 
0.2911 0.0839 -0.1083                     204 204 204 
0.2850 -0.0083 -0.1759                     123 90 76 
0.2604 0.1330 0.1619                     201 200 198 
0.2911 0.0654 -0.0960                     204 203 202 
0.2788 0.0470 -0.1820                     199 198 196 
0.2911 0.0777 -0.0285                     204 204 203 
-0.3353 0.2005 -0.2004                     99 71 59 
0.2543 0.1330 -0.1268                     202 202 200 
0.2911 0.1084 -0.2250                     204 204 204 
-0.3476 0.3786 0.1742                     123 90 76 
-0.3353 0.2804 -0.1697                     111 80 67 
-0.3353 0.3049 -0.2066                     113 81 68 
0.2911 -0.0021 0.0084                     125 91 76 
0.2911 0.0900 -0.1206                     204 204 203 
0.2420 0.1391 -0.1697                     201 200 199 
-0.3353 0.2927 0.1864                     113 81 69 
-0.3353 0.3664 0.2724                     122 89 75 
0.2850 0.0347 -0.2434                     128 96 82 
0.2911 0.1023 -0.0715                     204 204 204 
0.2850 -0.0083 -0.1759                     123 91 77 
-0.3721 0.4216 0.0391                     130 102 91 
0.2911 0.0224 -0.2619                     125 92 78 
0.2850 -0.0083 -0.2373                     123 90 75 
-0.3414 0.3479 -0.1820                     119 86 73 
-0.2247 -0.3337 -0.1697                     78 77 77 
0.2911 0.0102 -0.0346                     126 92 78 
0.2911 0.0224 0.1312                     128 94 80 
0.2420 0.1637 -0.2619                     112 80 66 
0.2788 0.0470 -0.1943                     197 196 194 
0.2850 0.0839 0.3216                     203 202 201 
0.2788 0.0900 0.3461                     115 84 73 
-0.3353 0.2128 -0.2127                     99 70 58 
0.2604 0.1330 0.1250                     201 200 198 
0.2911 0.0224 -0.2496                     127 93 79 
0.2665 -0.0144 0.0882                     107 81 72 
0.2850 0.0347 -0.2557                     127 94 81 
0.1007 0.2927 0.3461                     128 104 96 
0.2911 0.1023 -0.1268                     204 204 203 
0.2911 0.0286 -0.0469                     128 95 81 
0.2543 0.1391 -0.2619                     107 77 65 
0.0209 -0.2723 0.0759                     65 63 63 
0.2543 0.1330 -0.0592                     202 202 201 
-0.3353 0.3234 -0.2312                     115 83 69 
0.2911 0.1084 0.1312                     204 204 204 
0.1314 0.1760 0.3154                     103 71 58 
-0.3230 0.3356 -0.2619                     122 89 76 
-0.1756 -0.2908 0.0882                     75 74 74 
0.2911 0.0163 0.2233                     127 93 78 
-0.2247 -0.3337 0.1435                     79 78 78 
-0.0282 0.2312 0.3154                     104 72 58 
0.2911 0.0654 -0.0531                     204 203 202 
0.2788 0.1207 0.0022                     204 204 202 
-0.3353 0.3602 -0.2373                     120 87 73 
-0.3414 0.2190 0.1373                     105 75 63 
0.2481 0.2804 -0.2680                     114 82 69 
0.2911 0.0040 -0.1390                     125 91 76 
-0.0037 -0.2539 0.0636                     61 59 59 
0.2911 0.0163 -0.2373                     127 94 78 
0.2911 0.0102 -0.2312                     126 93 78 
0.2174 0.1330 -0.2557                     101 75 65 
0.2911 0.0163 -0.1636                     127 94 79 
0.0025 -0.2600 0.0391                     77 77 77 
-0.3353 0.2620 0.1557                     109 79 66 
-0.3414 0.3356 -0.0592                     119 86 73 
-0.1572 0.1883 -0.2496                     94 63 51 
0.2911 0.0102 0.1128                     126 92 78 
0.2911 0.0102 -0.0039                     126 92 78 
0.2911 0.0961 0.0391                     204 204 204 
0.2604 0.1698 0.3338                     115 82 69 
-0.0282 -0.2293 0.0022                     72 72 72 
0.2788 0.0409 -0.1083                     123 97 87 
0.2850 -0.0083 -0.1022                     123 91 77 
-0.3721 0.4216 -0.0899                     139 117 109 
0.2850 0.0532 -0.1452                     200 199 198 
-0.3660 0.4216 -0.1513                     140 118 109 
0.2727 0.2620 0.3461                     121 90 77 
0.0209 -0.2600 -0.0960                     78 78 78 
0.2850 0.0532 0.2663                     198 197 196 
0.2788 0.1207 -0.2066                     203 203 201 
-0.3414 0.3172 -0.1820                     115 83 70 
0.1683 0.2435 0.3216                     110 78 62 
-0.3353 0.2804 0.2601                     109 78 65 
0.2911 0.1023 -0.2127                     204 204 204 
0.2850 0.1146 0.0022                     204 204 204 
0.2911 0.0286 -0.1636                     129 96 81 
-0.3414 0.3541 -0.0162                     121 88 74 
0.2604 0.1330 0.0268                     202 201 200 
0.0762 0.2497 -0.2557                     109 78 66 
-0.3537 0.4032 -0.0408                     126 94 79 
-0.3476 0.3786 -0.0899                     123 90 77 
0.0270 0.2988 -0.2680                     129 106 99 
-0.3414 0.2620 0.0268                     112 81 69 
0.2788 0.0409 0.2233                     123 96 86 
0.1744 0.1821 -0.2557                     107 74 60 
0.2850 -0.0083 -0.2373                     123 90 75 
0.2911 0.0224 -0.1513                     128 95 80 
-0.3414 0.3479 0.1557                     120 87 74 
-0.3414 0.2128 -0.0838                     107 76 64 
-0.2739 0.2620 0.3154                     96 68 57 
-0.3414 0.2988 -0.0346                     116 83 70 
0.2788 0.1268 0.1128                     195 196 193 
0.2911 0.0716 -0.1452                     204 204 203 
0.2911 0.0224 0.3154                     126 92 77 
-0.0221 -0.2478 0.0698                     59 57 57 
0.2604 0.1330 -0.1145                     203 202 201 
0.2850 0.0347 0.0329                     129 96 82 
-0.3353 0.2620 -0.2004                     107 77 64 
0.2236 0.1453 0.0268                     199 199 197 
0.2788 0.0409 0.2110                     122 95 85 
-0.1695 0.1944 -0.2496                     93 62 50 
-0.3414 0.3172 0.0759                     117 85 72 
-0.3046 0.2128 -0.2434                     106 91 86 
0.2911 0.0286 -0.1820                     128 95 80 
-0.3353 0.2497 0.2601                     105 74 62 
-0.3353 0.3479 0.2601                     119 86 72 
-0.2862 0.2804 0.3277                     100 72 61 
-0.3414 0.3418 0.1128                     119 87 73 
-0.3414 0.2742 -0.1083                     113 81 69 
0.2665 0.1698 -0.2680                     136 115 107 
0.1744 0.1453 0.3154                     99 74 64 
0.2420 0.1391 -0.0960                     201 200 199 
-0.0344 -0.1925 -0.0469                     69 68 68 
0.2481 0.1391 0.0452                     202 202 200 
-0.3537 0.4093 -0.0039                     133 105 93 
-0.3046 0.2128 0.3031                     73 47 38 
-0.3230 0.2620 0.2847                     106 76 65 
-0.3046 0.2251 -0.2496                     79 52 42 
0.2788 0.1207 -0.1636                     203 203 201 
0.2727 0.1883 0.3400                     118 86 74 
-0.3169 0.2435 0.2908                     101 69 57 
0.2911 0.1084 -0.1145                     204 204 204 
-0.3599 0.4093 0.0759                     137 111 101 
0.2911 0.0716 -0.0592                     203 203 201 
-0.3353 0.2435 0.1619                     107 77 64 
0.2358 0.1453 0.1005                     200 199 198 
0.2911 0.0839 -0.1575                     204 204 204 
0.2911 0.1023 -0.1513                     204 204 204 
0.2850 0.1146 -0.2373                     204 204 204 
-0.3353 0.2865 0.2417                     110 79 66 
-0.3414 0.3356 0.0882                     119 87 73 
-0.3476 0.3725 -0.0838                     123 90 76 
0.2911 0.1084 0.0698                     204 204 204 
0.2420 0.1330 0.2970                     184 182 179 
0.1929 0.1576 0.1312                     197 196 195 
0.0639 -0.3092 0.1128                     70 69 68 
0.2911 0.0224 -0.1759                     128 94 80 
-0.0405 -0.1495 -0.0039                     69 68 67 
0.2358 -0.0328 -0.2680                     105 80 71 
-0.3353 0.3479 -0.2312                     119 85 71 
0.2911 0.0961 -0.2373                     204 204 204 
-0.3414 0.2128 0.0575                     106 77 64 
0.2911 0.0839 -0.0224                     204 204 203 
-0.3291 0.3541 -0.2496                     122 90 75 
-0.1511 -0.2600 0.0698                     73 73 72 
0.2850 0.0532 -0.2434                     200 200 198 
-0.1940 0.2005 -0.2496                     93 63 50 
-0.3414 0.3049 -0.0285                     117 85 72 
-0.3476 0.3848 -0.0101                     123 90 77 
0.2911 0.0839 0.1189                     204 204 203 
0.2788 0.1268 -0.2004                     197 197 195 
0.2481 0.2190 -0.2619                     114 81 67 
-0.3414 0.3172 0.0820                     117 85 72 
0.2911 0.0716 0.1250                     204 204 202 
0.2665 -0.0144 -0.1820                     107 81 72 
0.1683 0.1637 -0.2557                     104 72 59 
0.2788 0.1207 -0.1329                     203 203 201 
-0.3414 0.3541 -0.1697                     120 88 74 
0.2911 -0.0021 -0.2189                     125 90 76 
0.2788 0.1207 -0.0346                     204 204 202 
-0.3414 0.2620 0.1496                     110 79 67 
0.2604 0.1330 -0.1575                     201 201 199 
0.2911 0.0654 -0.1329                     203 203 202 
0.2911 0.1023 0.0820                     204 204 204 
-0.3353 0.2374 -0.2004                     104 74 62 
-0.3353 0.2251 0.2601                     101 72 60 
0.1192 0.2128 0.3154                     108 75 61 
-0.3414 0.3356 0.0820                     119 87 73 
-0.3476 0.3786 -0.1943                     123 90 75 
0.1253 0.2681 0.3216                     111 81 68 
-0.3599 0.4216 0.2724                     138 116 107 
0.1499 0.1760 0.3154                     104 72 58 
-0.3414 0.3172 -0.1083                     117 85 72 
-0.3169 0.2681 -0.2434                     114 88 78 
0.2911 0.0654 -0.1882                     203 203 202 
-0.3476 0.3725 -0.1206                     122 89 75 
0.2911 0.0839 -0.0039                     204 204 204 
-0.3414 0.3479 -0.0776                     120 87 73 
0.2850 0.1084 0.3216                     204 203 202 
0.2911 0.1023 -0.1943                     204 204 204 
0.0516 -0.3153 -0.1268                     79 79 79 
0.2174 0.2251 -0.2557                     112 80 66 
0.0209 -0.2723 -0.1083                     78 78 78 
-0.3414 0.3049 0.1128                     116 84 71 
-0.0958 0.1760 -0.2496                     94 63 51 
0.2911 0.0716 0.0759                     204 204 202 
-0.3599 0.4093 0.1189                     137 111 101 
0.1990 0.2497 -0.2619                     112 79 67 
-0.3414 0.2312 0.1128                     107 78 65 
-0.1879 -0.2969 0.1005                     76 76 76 
-0.0037 -0.2662 0.0820                     61 60 60 
0.0823 -0.3276 0.1312                     73 72 72 
0.1253 0.1883 -0.2557                     105 72 59 
0.2911 0.0224 0.1250                     128 94 79 
0.2911 0.0900 -0.2250                     204 204 204 
0.2850 0.0593 -0.1759                     201 201 199 
0.2297 0.1453 0.3277                     108 77 64 
-0.2493 0.2312 -0.2496                     93 62 50 
-0.0589 -0.1495 -0.0592                     64 62 62 
0.2911 0.0654 -0.2004                     204 203 201 
-0.3414 0.2804 -0.1268                     113 81 69 
0.2911 0.0654 0.0513                     203 202 201 
0.2911 0.0839 -0.1390                     204 204 204 
0.2911 0.0102 0.1742                     126 92 77 
0.2911 0.0286 -0.2312                     128 94 80 
-0.3476 0.3909 0.1189                     125 92 78 
0.2911 0.0900 0.1742                     204 204 204 
0.2850 -0.0083 0.0452                     123 91 78 
0.2911 0.0716 0.1987                     203 203 201 
0.2911 0.1023 -0.0960                     204 204 204 
-0.3353 0.2435 0.1742                     108 77 65 
0.2788 0.0532 -0.1575                     201 201 199 
-0.2186 -0.3583 0.1373                     64 64 64 
-0.0835 0.1760 0.3093                     94 64 52 
0.2543 0.1330 -0.1452                     202 202 200 
0.2788 0.0347 0.2601                     128 101 91 
-0.2984 0.2435 0.3093                     91 62 49 
0.2911 0.0839 0.3031                     204 204 203 
0.2604 0.0409 -0.2680                     62 41 34 
0.2911 0.1084 -0.2004                     204 204 203 
0.2911 0.0224 -0.1083                     127 94 79 
-0.3414 0.2988 -0.1329                     114 83 70 
-0.1756 -0.2723 -0.1268                     73 72 72 
0.2051 0.2251 0.3216                     112 81 68 
-0.3476 0.3909 -0.1943                     124 91 77 
0.1867 0.2128 -0.2557                     109 77 63 
0.2911 0.0654 -0.2557                     202 201 200 
-0.3414 0.2558 -0.1329                     110 79 67 
-0.3353 0.2190 0.2110                     102 73 61 
0.2850 0.1146 -0.0715                     204 204 203 
0.0086 0.2374 0.3154                     105 72 59 
-0.1818 -0.3030 -0.1329                     77 76 76 
0.2665 0.1268 0.2847                     197 195 194 
0.2911 0.0961 0.1926                     204 204 204 
0.2420 0.1637 0.3277                     112 80 66 
0.2297 0.1453 -0.1636                     199 199 197 
0.2788 0.1207 0.0145                     204 204 203 
0.0025 -0.2600 0.0636                     62 60 60 
0.0148 -0.2785 0.0452                     78 78 78 
-0.3414 0.3541 -0.0101                     120 88 74 
-0.3414 0.2497 0.1496                     109 78 65 
0.2604 0.1330 -0.1943                     201 201 199 
0.2665 -0.0144 0.1987                     106 81 71 
0.0270 -0.2785 0.0636                     79 79 78 
-0.3353 0.2558 -0.1882                     107 77 64 
0.2911 0.0839 -0.2312                     204 204 203 
0.2358 0.2435 0.3277                     113 81 69 
-0.0774 0.2435 0.3154                     103 73 60 
0.2481 0.1391 -0.2004                     201 200 199 
0.2420 0.1391 -0.1820                     200 199 198 
0.0700 -0.3215 0.1312                     71 71 70 
0.2911 0.0040 0.1803                     125 90 76 
0.2850 0.1146 -0.2557                     203 203 201 
0.2604 0.1330 0.3031                     187 185 183 
-0.3414 0.2742 -0.1206                     112 81 68 
-0.2984 0.2374 -0.2496                     90 60 49 
-0.3353 0.3725 0.3338                     123 92 78 
0.2297 0.1453 -0.0408                     201 200 199 
-0.3414 0.2865 0.0820                     114 82 69 
-0.0528 -0.1802 -0.0285                     59 58 58 
-0.3230 0.3049 -0.2434                     151 138 134 
-0.3414 0.2927 -0.1022                     115 83 70 
-0.3414 0.2620 -0.1329                     111 80 67 
0.2911 0.0961 -0.1145                     204 204 204 
-0.3414 0.2251 -0.0838                     108 78 65 
0.2481 0.1391 -0.1575                     201 200 199 
0.2911 0.0900 -0.1268                     204 204 204 
-0.0344 0.2804 0.3277                     110 80 68 
-0.3599 0.4216 -0.2189                     135 113 104 
0.2911 0.0286 -0.0960                     128 96 81 
-0.3046 0.2312 0.3031                     72 47 38 
-0.3353 0.2620 0.1926                     108 78 65 
0.2911 0.0040 -0.2127                     126 91 77 
0.2727 0.1391 -0.2680                     147 130 124 
0.1499 0.1698 -0.2557                     104 71 58 
0.2911 0.1023 -0.1083                     204 204 204 
0.2911 0.1023 0.2786                     204 204 204 
0.2911 0.0163 -0.0715                     127 93 79 
0.2297 0.1453 0.1373                     199 199 197 
0.2911 0.0961 -0.2434                     204 204 204 
0.2911 0.0716 -0.0531                     204 204 202 
-0.3599 0.4155 0.0513                     139 117 107 
0.2850 0.0593 -0.0715                     202 201 200 
-0.0282 -0.2171 0.0022                     72 72 72 
0.0577 0.1637 0.3093                     100 71 60 
-0.3599 0.4155 0.1619                     139 116 106 
-0.3353 0.3602 -0.2373                     121 87 73 
0.2604 0.1330 -0.1943                     201 201 199 
-0.3414 0.2374 0.1066                     108 78 65 
-0.3537 0.4093 -0.0469                     132 104 92 
0.2911 0.0716 0.1005                     204 204 203 
0.2911 0.0839 0.0575                     204 204 202 
-0.3414 0.2312 0.0391                     109 78 65 
0.2788 0.1207 -0.0531                     202 202 201 
-0.3353 0.2742 0.2417                     109 78 66 
0.2911 0.0777 0.0206                     204 204 203 
0.1437 0.2005 -0.2557                     106 74 60 
0.2911 0.0839 -0.2004                     204 204 202 
-0.3599 0.4093 -0.1329                     137 111 101 
0.2911 0.0347 0.1496                     128 95 80 
-0.3414 0.3172 0.0391                     118 85 72 
0.2911 0.1023 0.0575                     204 204 203 
-0.3353 0.2251 -0.1943                     103 73 61 
0.2911 0.0040 -0.2127                     126 92 77 
0.2850 0.0593 -0.1697                     202 201 201 
0.2543 0.1760 0.3277                     114 82 69 
0.1990 0.1883 0.3154                     111 79 66 
0.2911 0.0654 -0.0531                     204 204 202 
0.0393 0.1637 -0.2496                     99 71 60 
0.0885 0.3111 -0.2864                     117 91 81 
-0.3414 0.3602 -0.1759                     120 88 74 
0.0086 -0.2539 0.0391                     78 77 77 
0.2911 0.0224 0.0391                     127 94 79 
0.2911 0.0224 -0.2004                     127 94 80 
-0.0467 -0.1372 0.0022                     69 68 67 
0.2604 0.1330 0.0084                     201 201 199 
0.2297 0.1453 0.2663                     192 190 189 
0.0393 0.2927 0.3400                     123 99 89 
0.2911 0.0900 -0.1390                     204 204 204 
0.2051 -0.0390 0.3461                     102 76 66 
0.2420 0.1330 -0.2619                     112 86 75 
-0.3414 0.2927 -0.1206                     114 83 70 
-0.3537 0.4032 0.1005                     126 94 79 
0.2850 0.0777 -0.2619                     202 201 199 
-0.0098 -0.2478 0.0513                     60 58 57 
-0.1388 0.2435 0.3154                     101 71 58 
0.2604 0.1330 -0.1697                     201 201 199 
0.2727 0.0470 -0.0960                     87 64 55 
0.2727 0.0409 0.2786                     84 61 53 
-0.3414 0.2312 0.0882                     108 78 65 
0.2850 -0.0083 -0.0224                     124 90 76 
0.2788 -0.0083 -0.1452                     111 85 74 
0.0332 0.2558 -0.2557                     109 79 67 
-0.3414 0.3418 -0.1206                     119 87 73 
-0.3414 0.3295 0.1496                     118 86 72 
-0.3353 0.2620 -0.2004                     107 77 64 
-0.3414 0.3111 -0.1452                     116 84 71 
-0.3476 0.3971 0.0943                     126 92 79 
0.1929 0.1576 0.0391                     198 197 195 
0.2604 0.1330 -0.1329                     202 202 201 
-0.3353 0.2804 0.1926                     111 80 67 
0.2850 0.0163 0.3400                     122 89 74 
0.1929 0.1453 0.3154                     106 80 70 
0.2850 0.1146 0.0084                     204 204 204 
-0.2616 0.3111 -0.2803                     91 72 65 
0.2911 0.0102 -0.2312                     126 92 78 
-0.1511 -0.2600 -0.1083                     73 72 72 
0.2911 0.1023 -0.1575                     204 204 204 
-0.3414 0.2804 0.0022                     114 82 70 
-0.0589 -0.0942 0.0084                     63 62 61 
-0.1265 0.1760 -0.2496                     94 63 51 
0.2850 0.0961 -0.2619                     202 201 200 
0.1314 0.2927 -0.2680                     126 101 92 
0.2911 0.0839 -0.0838                     204 204 204 
-0.3353 0.3725 0.2847                     124 91 77 
0.2911 0.0900 -0.0285                     204 204 204 
-0.3476 0.3725 -0.0224                     123 90 76 
0.2850 0.0224 -0.2680                     124 91 76 
-0.3476 0.3971 -0.2373                     128 95 82 
0.0332 -0.0574 -0.2864                     97 73 63 
0.1192 0.2865 0.3338                     117 88 76 
-0.3476 0.4032 -0.1943                     126 93 79 
0.1990 0.2312 -0.2557                     111 79 65 
-0.0958 0.3111 -0.2864                     96 71 62 
0.2911 0.0839 -0.0960                     204 204 203 
0.0209 -0.2723 0.0513                     78 78 78 
0.2788 0.1268 -0.1882                     199 199 197 
-0.3476 0.3909 -0.2557                     120 89 76 
0.2911 0.0163 0.0022                     127 94 79 
-0.0651 -0.1311 0.0206                     66 65 65 
0.1437 0.2005 0.3154                     107 74 61 
0.2911 0.0040 -0.2373                     126 91 77 
0.2911 0.0347 -0.2004                     129 96 81 
0.2481 0.2251 -0.2619                     113 81 67 
0.2604 0.1330 -0.2373                     196 195 193 
0.2911 0.0040 0.1066                     126 91 77 
0.0577 -0.3092 0.1189                     70 69 68 
0.1253 0.2190 -0.2557                     107 74 61 
0.2727 0.2620 0.3461                     120 90 76 
0.2788 -0.0083 -0.0531                     112 85 74 
0.2850 0.0532 -0.2004                     200 199 198 
0.0025 -0.2662 0.0882                     62 60 60 
0.2911 -0.0021 -0.1145                     124 90 75 
0.2788 0.1207 -0.0592                     204 203 202 
-0.3414 0.3172 0.0820                     117 85 72 
0.2911 0.0224 -0.1697                     127 94 79 
-0.3476 0.3848 0.0882                     124 91 77 
-0.3046 0.2312 0.3031                     73 47 38 
0.1314 0.1514 0.3154                     104 80 70 
0.2911 0.0040 -0.0531                     125 91 76 
-0.2493 -0.3522 -0.1943                     79 79 79 
-0.0467 -0.1986 0.0145                     64 63 63 
-0.3476 0.3602 0.1005                     121 88 75 
-0.3414 0.3479 0.0943                     120 88 74 
0.1376 0.2128 0.3154                     109 76 61 
0.2911 0.0716 0.2970                     203 203 202 
0.2297 0.1453 0.2601                     193 192 191 
0.2911 0.0286 0.0206                     129 96 81 
0.2113 0.2865 0.3338                     116 85 73 
-0.3414 0.2190 0.0759                     106 77 64 
0.2788 0.1207 0.2294                     202 201 200 
0.2481 0.1576 -0.2619                     112 80 66 
0.2911 -0.0021 -0.2557                     123 90 75 
-0.1756 0.2620 -0.2557                     102 74 62 
0.0762 0.2005 -0.2496                     105 72 59 
0.2911 0.0040 0.1557                     125 91 76 
0.2911 0.0900 0.1005                     204 204 204 
-0.3414 0.3172 0.1619                     116 84 71 
0.2420 0.1391 -0.1329                     202 201 200 
-0.3599 0.4155 0.0391                     139 117 108 
0.2481 0.2190 0.3277                     113 81 68 
0.2911 0.0102 -0.2250                     127 94 79 
0.0516 0.2190 0.3093                     105 73 59 
0.2911 0.0224 -0.0408                     127 94 80 
0.0332 -0.2908 0.1128                     67 65 65 
0.0332 -0.3030 0.0636                     78 78 78 
-0.3660 0.4216 -0.1697                     140 117 108 
-0.3169 0.2742 0.2970                     107 78 67 
0.2665 0.2681 -0.2680                     153 139 134 
-0.3476 0.4032 0.2724                     129 97 84 
-0.3721 0.4216 0.1619                     93 68 58 
0.2911 0.0716 -0.1697                     204 204 202 
0.2604 0.1698 0.3338                     115 83 70 
0.2604 0.1330 0.2417                     201 200 198 
0.2788 0.0532 0.0636                     179 178 177 
0.2850 0.1084 -0.1329                     204 204 204 
0.2911 0.0654 -0.2373                     202 202 200 
0.2850 -0.0083 -0.2496                     123 89 75 
-0.3169 0.3172 0.3154                     104 74 62 
-0.0467 -0.1986 -0.0346                     66 66 66 
0.2665 0.1576 -0.2680                     134 113 105 
0.2665 -0.0144 -0.0653                     107 82 72 
0.2727 0.2005 -0.2680                     147 130 123 
0.2850 -0.0083 -0.1882                     123 90 76 
-0.3230 0.2742 0.2908                     107 78 67 
-0.3414 0.2128 -0.0715                     107 77 64 
0.2911 0.0777 0.1435                     204 204 204 
-0.0712 -0.1249 -0.0653                     60 59 59 
0.2911 0.0839 0.2724                     204 204 203 
0.2850 0.0593 -0.1636                     202 202 200 
0.2788 0.2497 0.3461                     120 89 76 
0.2911 0.0716 0.0452                     204 204 202 
0.1806 0.1514 -0.2557                     107 82 72 
0.2727 0.1330 0.3461                     117 87 74 
0.2788 0.0470 -0.1759                     203 202 201 
-0.2186 0.2988 0.3461                     119 96 88 
0.2911 0.0961 0.2479                     204 204 202 
0.2788 0.0470 -0.2127                     195 194 193 
-0.3599 0.4155 -0.2004                     138 113 104 
-0.3414 0.2067 0.0820                     104 75 63 
0.2911 0.0716 -0.1329                     203 202 201 
-0.3414 0.2804 0.0145                     114 82 70 
0.2911 0.0839 -0.2250                     204 204 203 
0.2911 0.0961 0.1189                     204 204 204 
0.2481 0.2374 0.3277                     114 82 69 
0.2850 0.0961 -0.2619                     202 201 200 
0.2911 0.0839 -0.2250                     204 204 203 
-0.3414 0.2435 -0.0715                     110 79 67 
0.2911 0.0839 -0.0776                     204 204 203 
-0.3414 0.2681 -0.0838                     113 81 69 
0.2911 0.1023 0.0636                     204 204 203 
0.1314 0.1576 0.3154                     105 79 69 
0.2911 0.0163 -0.1943                     127 94 80 
-0.0589 -0.0697 -0.0224                     27 26 26 
0.2788 0.1207 0.1373                     204 204 202 
-0.3291 0.3418 0.2970                     119 85 72 
-0.0589 0.2251 -0.2557                     102 70 57 
0.2727 0.0470 -0.1820                     88 64 55 
-0.1265 0.2374 0.3154                     101 70 56 
-0.3599 0.4155 -0.2066                     139 116 106 
-0.3476 0.4032 -0.2066                     126 94 79 
0.1867 0.2067 -0.2557                     111 78 63 
0.0209 -0.2600 0.0575                     79 78 78 
-0.3476 0.3725 -0.0531                     122 90 76 
0.2420 0.1391 -0.2250                     196 195 193 
0.2911 0.1023 0.2417                     204 204 202 
-0.0221 0.2742 0.3277                     109 79 67 
0.1683 0.2742 -0.2619                     113 82 69 
0.2788 0.1268 0.1128                     197 197 195 
-0.0528 -0.1311 -0.0531                     63 62 62 
0.2727 0.1391 0.3400                     116 85 72 
0.2911 0.0777 -0.1759                     204 204 204 
-0.3414 0.2620 -0.1636                     109 79 66 
0.2911 0.1084 -0.1697                     204 204 204 
-0.3414 0.2067 -0.1759                     102 72 61 
-0.3291 0.2374 -0.2373                     141 128 124 
-0.3414 0.2251 -0.1268                     107 77 65 
0.2911 0.0777 0.0882                     204 204 204 
0.2911 0.0102 0.1128                     126 92 78 
-0.3414 0.3356 0.0329                     119 87 73 
0.2911 0.0839 -0.0899                     204 204 204 
-0.3414 0.2374 0.1250                     107 77 65 
0.0885 0.1698 -0.2496                     99 70 57 
-0.0651 -0.1127 -0.0592                     59 58 57 
0.2788 0.0532 0.2233                     177 177 175 
-0.3414 0.2620 -0.0776                     112 81 68 
-0.0037 -0.2600 -0.0838                     76 76 76 
-0.2432 0.2558 0.3154                     97 69 58 
0.2911 0.1084 -0.2496                     204 203 202 
0.2911 0.0839 -0.0346                     204 204 204 
-0.3414 0.2251 0.0145                     108 78 65 
-0.3414 0.2435 -0.1513                     108 78 65 
-0.3537 0.4032 0.1680                     126 93 79 
0.2850 0.0593 -0.1820                     202 201 200 
0.2911 0.0777 -0.0469                     204 204 204 
-0.3169 0.2190 -0.2434                     98 67 54 
0.1499 0.1514 -0.2557                     102 77 68 
0.2788 0.0470 -0.0101                     198 197 195 
0.2604 0.1330 0.3338                     111 80 67 
0.2788 0.0470 -0.2434                     196 195 194 
-0.3476 0.3602 0.0943                     121 89 74 
0.2911 0.1023 -0.2189                     204 204 204 
-0.3414 0.2742 0.1312                     111 80 68 
0.1192 0.2067 0.3154                     107 74 61 
-0.1203 0.2435 -0.2557                     102 72 60 
-0.3414 0.2497 -0.1206                     109 79 66 
0.2543 0.2681 -0.2680                     115 82 68 
0.2236 0.1453 0.1742                     198 197 196 
-0.3291 0.2620 -0.2373                     141 128 123 
-0.3476 0.4032 0.2049                     126 94 79 
0.1990 0.2005 0.3154                     111 79 66 
0.2788 0.0470 0.2049                     195 194 192 
-0.3476 0.3725 -0.0224                     122 89 75 
0.2911 0.0777 -0.0960                     204 204 203 
0.2911 0.0654 -0.0715                     204 203 202 
0.0393 -0.3092 -0.1513                     68 68 67 
0.0455 0.1944 0.3093                     103 71 57 
0.0823 -0.3337 0.1496                     72 72 71 
0.2665 -0.0144 0.0759                     108 82 72 
0.2850 0.0532 0.1005                     199 199 197 
0.2911 0.1023 -0.0408                     204 204 204 
-0.3107 0.2190 -0.2434                     92 61 50 
0.2850 0.0347 0.3277                     127 95 82 
0.2788 0.1207 -0.0715                     203 203 201 
0.0393 -0.2908 0.0698                     79 79 79 
0.2788 0.1268 -0.0960                     200 199 198 
-0.3537 0.3971 0.0206                     126 93 79 
0.2358 0.2435 0.3277                     113 82 69 
0.2481 0.1637 0.3277                     112 80 66 
0.2665 -0.0144 -0.0776                     108 82 72 
0.2911 0.0716 -0.0899                     204 204 203 
-0.0712 -0.0881 -0.0592                     56 54 54 
0.2911 0.0777 -0.0039                     204 204 204 
0.2911 0.0900 -0.0285                     204 204 203 
0.2788 0.0347 -0.2004                     131 106 96 
0.1929 0.1514 -0.2127                     191 190 188 
0.2911 0.0102 0.2356                     126 92 76 
0.2727 0.0470 -0.1697                     88 64 55 
0.2850 -0.0083 -0.2066                     123 90 75 
-0.3414 0.2742 -0.0224                     113 81 69 
0.2788 0.0347 0.0759                     131 106 96 
0.2481 0.1883 0.3277                     114 81 67 
0.2850 0.1146 -0.1820                     204 204 204 
0.2850 0.0347 0.1250                     128 96 81 
0.0148 0.2742 -0.2619                     111 80 69 
0.2788 0.1207 -0.2496                     201 201 199 
-0.3414 0.2742 0.0575                     113 81 69 
0.2911 0.0102 -0.0838                     126 92 78 
0.2911 0.0163 0.0145                     127 94 80 
0.2911 0.0839 -0.2496                     204 204 202 
-0.3414 0.2620 0.0575                     111 80 67 
0.2420 0.2435 0.3277                     113 82 69 
-0.3107 0.2128 -0.2434                     91 61 50 
0.2911 0.0961 -0.2004                     204 204 204 
-0.1326 0.2251 -0.2557                     99 68 55 
-0.3537 0.4032 -0.1268                     126 94 80 
0.2911 0.0900 -0.0653                     204 204 203 
0.0025 -0.2539 -0.0838                     76 76 76 
-0.3353 0.2742 0.1987                     110 79 66 
0.2850 0.1146 0.1250                     204 204 203 
0.2911 0.0163 -0.2496                     126 92 78 
0.2174 0.2251 0.3216                     112 81 68 
0.2604 0.1330 -0.1697                     201 201 199 
0.2788 0.1207 0.0698                     204 204 202 
0.2604 0.1637 -0.2619                     120 92 80 
0.2911 0.0040 -0.2373                     125 91 76 
0.2911 0.0102 -0.1206                     126 93 78 
0.2788 0.1207 0.0698                     204 204 203 
-0.0774 0.2742 -0.2619                     108 79 67 
-0.3414 0.2312 0.1250                     107 77 65 
0.1621 0.2497 -0.2557                     111 78 64 
0.2850 0.1084 -0.0653                     204 204 203 
0.2911 0.0654 -0.1329                     203 202 201 
-0.3230 0.2190 -0.2434                     100 71 58 
0.0885 0.2374 -0.2557                     108 75 62 
0.2911 0.0224 0.3093                     126 92 78 
-0.3414 0.2558 -0.0960                     111 80 67 
0.1990 0.1576 0.3154                     105 75 63 
-0.3230 0.3172 -0.2496                     143 126 120 
-0.3414 0.3909 -0.2127                     124 91 77 
0.0455 -0.2969 -0.1268                     79 79 79 
-0.3169 0.2128 -0.2434                     96 64 53 
0.2911 -0.0021 0.3093                     123 90 76 
-0.3353 0.2497 0.2356                     106 76 64 
-0.3476 0.3602 0.0268                     122 89 75 
0.2850 0.0593 0.1005                     201 201 199 
0.2911 0.0716 0.2601                     203 203 201 
0.0148 -0.2785 0.1005                     64 63 63 
-0.0037 -0.2539 0.0698                     61 59 59 
0.1621 0.1698 0.3154                     105 72 59 
0.2788 0.0470 0.0759                     202 202 200 
0.2604 0.1330 -0.2004                     201 201 200 
-0.3414 0.2927 -0.1083                     114 83 70 
-0.3537 0.4093 -0.1943                     135 108 97 
0.2911 0.1084 0.0452                     204 204 204 
0.2358 0.1453 0.2110                     199 198 196 
0.2113 0.1514 -0.1145                     200 199 198 
0.2911 0.0163 -0.1513                     127 94 79 
-0.1081 0.1760 -0.2496                     93 63 51 
-0.0712 -0.0758 0.0145                     61 60 59 
-0.3291 0.3049 -0.2250                     112 79 66 
0.2236 0.2497 -0.2619                     112 81 67 
0.2788 0.1268 -0.1882                     199 198 197 
0.2911 0.0224 0.1250                     128 94 79 
0.2604 0.1330 0.0698                     202 201 200 
0.2911 0.0839 0.1619                     204 204 204 
-0.3414 0.3049 -0.0162                     116 85 71 
0.2788 0.0470 -0.0776                     197 196 194 
0.2297 0.2374 0.3277                     113 82 69 
0.1744 0.2190 0.3154                     110 77 62 
-0.3599 0.4093 0.0943                     137 111 101 
0.2850 -0.0083 -0.2066                     123 89 75 
0.2911 0.0654 0.2356                     202 202 200 
-0.3476 0.3725 -0.0715                     123 90 76 
-0.3353 0.2988 -0.1943                     112 80 68 
0.2911 0.0163 -0.2066                     127 94 79 
0.2911 0.0040 0.0575                     126 92 77 
-0.3414 0.2865 -0.0162                     115 82 70 
0.2850 0.1146 -0.1943                     204 204 204 
-0.3414 0.2190 0.0943                     106 76 64 
0.2911 0.0839 -0.1820                     204 204 203 
0.2911 -0.0021 -0.0224                     124 90 76 
-0.3414 0.2865 -0.1636                     112 81 68 
0.2911 0.0961 -0.2189                     204 204 204 
0.0086 0.2374 0.3154                     105 72 59 
-0.3414 0.3786 -0.2312                     123 90 75 
0.2297 0.1453 -0.1329                     201 200 199 
0.1744 0.2251 0.3216                     110 77 63 
-0.3414 0.2312 0.0145                     109 78 66 
0.2788 0.1084 0.3461                     116 85 73 
0.2788 0.1207 -0.1390                     204 204 203 
0.2543 0.1330 0.2970                     187 186 183 
-0.3476 0.3786 0.1312                     124 91 77 
0.2911 0.1084 -0.1390                     204 204 204 
0.2911 0.0347 -0.1882                     128 95 81 
0.2788 0.2435 0.3461                     121 90 77 
0.1621 0.1576 0.3154                     107 82 72 
0.2727 0.1207 0.3461                     116 86 74 
0.2665 0.2435 0.3338                     118 86 72 
0.2604 0.2435 0.3338                     116 84 70 
-0.0467 -0.0697 -0.0162                     58 57 57 
0.1130 0.1576 -0.2557                     104 78 68 
0.2358 0.1453 -0.1943                     199 198 196 
-0.3353 0.2988 -0.1882                     113 81 68 
0.2911 0.1023 -0.2434                     204 204 204 
-0.3291 0.3418 -0.2434                     119 86 72 
0.2543 0.1760 -0.2619                     115 83 69 
-0.3414 0.3848 0.2970                     126 93 79 
0.2911 0.0102 -0.0039                     126 93 78 
0.2911 0.1084 0.2663                     204 204 204 
0.2297 0.2927 0.3461                     127 102 93 
0.2788 0.0470 0.0206                     199 198 196 
0.2911 0.1023 -0.1820                     204 204 203 
0.0577 0.1698 0.3093                     99 68 55 
-0.3414 0.3479 0.2110                     120 87 73 
0.2727 0.0470 0.0513                     88 64 55 
-0.3414 0.2558 -0.1636                     109 78 66 
0.2911 0.1023 -0.1452                     204 204 204 
-0.3414 0.2742 -0.1083                     112 81 68 
0.2850 -0.0083 -0.2127                     123 90 76 
0.2543 0.1698 -0.2619                     113 81 67 
