ply
format ascii 1.0
comment VCGLIB generated
element vertex 1024
property float x
property float y
property float z
property uchar red
property uchar green
property uchar blue
element face 0
property list uchar int vertex_indices
end_header
-0.2833 -1.0552 0.4089                             16320 16320 16320 
-0.0187 -0.0282 -0.0040                             1020 26775 33660 
-0.2304 -0.0282 0.0596                             2550 34170 40800 
0.2460 -0.0388 0.3667                             765 31365 39270 
0.3096 -0.0494 0.2714                             1530 33150 39780 
-0.2728 -0.0070 0.0278                             510 34170 40290 
0.2460 -0.0282 0.1867                             510 27795 35955 
0.2460 -0.0282 0.2396                             1275 29325 37995 
-0.2199 0.3847 0.6630                             1785 29070 33915 
-0.2833 -1.0552 0.3877                             13260 13260 39015 
-0.1457 0.4271 0.7055                             765 22440 30090 
-0.0716 0.4059 0.7055                             765 29070 35955 
0.3096 -0.0282 0.1655                             1275 25755 32895 
-0.2728 -0.6953 0.7267                             32130 32385 32895 
-0.1457 -0.0494 0.0702                             2805 34935 41055 
-0.2728 -0.4517 -0.3003                             2295 19635 23970 
0.2672 -0.0282 0.6418                             765 34935 41820 
-0.0821 0.4483 0.7160                             1020 28305 35700 
-0.1140 -0.0282 0.1336                             1785 33915 40290 
-0.1774 0.3741 0.6736                             510 21675 28815 
-0.2516 -0.1765 -0.2686                             3570 31875 38505 
0.0131 -0.0282 0.1126                             2550 34425 40800 
-0.2411 -0.0175 0.0172                             2040 33405 39525 
-0.0928 -0.0282 -0.0781                             2295 33915 40290 
-0.3045 -1.0552 0.3667                             26775 26775 26775 
0.1930 -0.0388 0.2607                             510 28560 36975 
0.2779 -0.0600 0.4936                             765 34680 41310 
-0.2621 -0.5046 -0.3003                             2040 24225 30345 
-0.1774 -0.0388 -0.0252                             1530 33660 40290 
-0.2833 -0.0175 0.1231                             1020 28050 35445 
0.2989 -0.0388 0.2501                             1785 32130 39270 
0.2884 -0.0282 0.1336                             2040 27540 34170 
-0.1987 0.3212 0.6418                             765 28560 36210 
0.1930 -0.0494 0.4301                             510 29325 37740 
-0.2728 0.0354 0.5360                             255 31365 39015 
-0.2621 -0.1658 0.5996                             255 25755 33915 
0.0767 0.4166 0.7267                             2295 29835 37230 
-0.1033 -0.0282 0.6101                             510 29070 36465 
-0.0187 -0.0282 0.0807                             2295 34425 40800 
0.2884 -0.0494 0.3772                             765 33660 40800 
0.0872 0.4588 0.7372                             1785 32130 39270 
-0.1140 -0.0282 -0.0357                             1530 33150 39525 
-0.2833 -0.0175 0.3031                             1275 29580 36975 
-0.1562 0.3105 0.6630                             765 29580 37230 
-0.2728 -0.0175 0.0807                             3570 35190 41310 
-0.2833 -0.4199 -0.3003                             2550 26775 33150 
-0.2833 -1.0657 0.4936                             15810 15810 15810 
-0.1562 0.4800 0.7160                             2295 29580 36720 
-0.2833 -0.0175 0.1972                             510 23970 31875 
0.2037 -0.0282 -0.0040                             1275 20910 27030 
-0.2833 -0.9916 0.7477                             37230 37230 37230 
0.0660 -0.0282 -0.0569                             2040 30855 37485 
0.0555 -0.0388 0.6525                             1530 30090 37230 
-0.0187 -0.0282 -0.0252                             765 30345 37230 
-0.0081 -0.0282 0.0278                             2040 33915 40545 
-0.0611 0.3317 0.6843                             510 23460 30600 
-0.2621 -0.0070 0.5677                             510 29070 36720 
0.2779 -0.0282 0.1336                             765 26265 33660 
-0.2833 -0.0175 0.3348                             510 33660 40545 
0.3413 -0.0282 0.2077                             255 25500 32130 
0.1084 -0.0600 0.6525                             765 29835 38760 
-0.2621 -0.2187 0.6313                             1275 27795 35700 
-0.2833 -1.0128 0.7477                             32895 32895 32895 
-0.2940 -0.6634 0.7160                             33915 34170 34170 
0.0131 0.4695 0.7372                             1020 27540 34935 
-0.2199 0.5224 0.6736                             1020 36465 42840 
0.2884 -0.0282 0.1126                             1275 24735 30345 
0.2884 -0.0282 0.0702                             3060 24225 29835 
-0.2940 -1.0445 0.5677                             17085 17085 17085 
-0.2728 -0.0070 -0.0464                             765 30855 37995 
0.2249 -0.0282 0.0384                             2550 21420 29070 
-0.2833 -0.0175 0.1126                             2550 34425 40545 
-0.2833 -0.9811 0.7372                             35700 35700 35700 
0.3096 -0.0282 0.2077                             2040 29325 35955 
0.2142 -0.0388 0.3560                             255 29070 37485 
0.2142 -0.0600 0.5148                             1275 31365 39270 
0.1084 -0.0282 0.0067                             1785 15045 19890 
-0.2833 -0.4834 -0.3003                             1530 24735 32640 
0.0025 0.2895 0.6736                             1020 28305 35445 
0.0343 0.3105 0.6843                             2040 31620 37740 
0.0131 0.5012 0.7477                             1785 32130 38505 
-0.2516 -0.2082 0.6313                             255 27285 35445 
