ply
format ascii 1.0
comment VCGLIB generated
element vertex 1024
property float x
property float y
property float z
property uchar red
property uchar green
property uchar blue
element face 0
property list uchar int vertex_indices
end_header
0.3201 -0.0282 0.1972                             5355 30600 36210 
0.0025 0.4483 0.7372                             765 31110 37740 
-0.0187 -0.0282 -0.0252                             1530 29325 35190 
-0.0928 0.4376 0.7160                             1275 27795 34425 
-0.0504 0.5224 0.7477                             2295 30090 37230 
0.0025 -0.0812 0.6418                             1020 27285 35445 
-0.2411 0.4695 0.6630                             1785 35445 42840 
0.0449 -0.0282 0.0278                             765 32895 39270 
0.0343 -0.0282 0.0914                             11220 32130 38250 
-0.2411 -0.1553 -0.2474                             2550 32385 39015 
-0.0928 0.4059 0.7055                             255 24225 32130 
-0.0611 -0.0388 0.6313                             1530 28560 36720 
0.2460 -0.0388 0.3348                             510 31110 38760 
-0.1457 -0.0494 0.0490                             2805 34680 40545 
-0.2728 -0.4517 -0.2898                             1530 24480 31110 
0.0449 -0.0282 -0.0569                             510 29835 36210 
-0.1033 -0.0494 0.6206                             255 28815 36210 
0.0555 -0.0282 0.0067                             255 18105 23970 
0.3201 -0.0494 0.2501                             2295 29325 36465 
-0.2516 -0.0494 0.5784                             510 29070 36720 
0.2037 -0.0388 0.3455                             510 26520 35445 
-0.2833 -0.6953 0.7160                             41565 41565 41565 
-0.2833 -0.0070 0.0596                             2040 33915 40545 
-0.2516 -0.2611 -0.2793                             255 29070 35700 
-0.1562 -0.0494 0.0384                             3570 35445 41565 
-0.1881 0.4376 0.6948                             1275 28815 35700 
-0.2940 -1.0445 0.6418                             37995 37995 37995 
-0.2833 -0.0070 0.1019                             2040 34680 41055 
-0.2621 -0.1553 0.5996                             1020 29325 36975 
-0.1881 0.3954 0.6843                             765 21930 29580 
0.2567 -0.0388 0.2926                             765 30090 37740 
-0.3045 -1.0764 0.4725                             41310 41310 41310 
0.2779 -0.0388 0.3136                             765 31110 38760 
-0.2621 0.2895 0.5996                             1530 28815 35955 
-0.0821 0.3317 0.6843                             510 26520 33915 
-0.1774 0.4800 0.7055                             2040 29580 36720 
0.1825 -0.0812 0.5572                             255 27285 36210 
0.0555 -0.0600 0.6525                             510 29325 37740 
0.2249 -0.0494 0.4196                             510 30600 38505 
-0.1033 -0.0282 -0.0674                             510 27795 34680 
-0.2199 -0.0282 0.0067                             2040 33660 40290 
0.2355 -0.0705 0.6418                             1275 34425 41820 
0.2249 -0.0282 0.1126                             3060 26775 33405 
-0.2833 -0.4623 -0.3003                             3315 27795 34170 
-0.0611 0.3212 0.6843                             510 22950 30090 
-0.2833 -0.0175 0.2607                             3060 32640 39270 
-0.2940 -1.0657 0.6948                             42075 42075 42075 
0.2249 -0.0282 0.1336                             765 24735 31620 
-0.2621 -0.0494 0.5572                             510 34935 41820 
-0.2833 -0.4411 -0.3003                             1785 27285 33405 
0.1508 -0.0494 0.3984                             510 26265 34935 
-0.2833 -1.0552 0.3243                             14535 14535 14535 
-0.0821 -0.0282 0.0807                             3060 34935 41310 
0.2884 -0.0282 0.0702                             1275 22440 29325 
0.0025 0.3317 0.6948                             1020 28815 35955 
0.3308 -0.0494 0.2501                             1020 29835 36210 
-0.2516 -0.3141 -0.2793                             1275 29835 36465 
-0.2833 -1.0657 0.5360                             31365 31365 31365 
-0.2411 -0.1024 0.5889                             1020 28560 36210 
-0.0081 0.3954 0.7160                             255 27795 34935 
-0.2833 -0.0175 0.3136                             255 24480 32895 
-0.1774 0.2895 0.6418                             255 28050 35190 
0.2567 -0.0494 0.3772                             255 30345 38250 
0.2355 -0.0282 0.2184                             510 30345 37740 
-0.0292 -0.0282 -0.0674                             1785 31875 38505 
-0.0292 0.3105 0.6843                             1530 28815 35955 
0.0660 -0.0282 0.6525                             510 30600 37995 
-0.2621 -0.0175 0.0172                             2550 34680 41055 
-0.2833 -0.8116 0.7477                             40800 40800 40800 
-0.2833 -1.0657 0.3984                             17085 17085 17085 
0.0555 -0.0282 -0.0357                             1020 30600 36975 
0.2249 -0.0812 0.5677                             510 31365 39015 
0.1930 -0.0282 0.0172                             18870 30855 35190 
-0.2833 -1.0552 0.6101                             41565 41565 41565 
-0.0611 -0.0282 -0.0252                             1020 33150 39525 
-0.1881 0.3741 0.6736                             510 27285 34425 
-0.0187 -0.0282 0.6418                             510 28815 36720 
0.2779 -0.0917 0.6206                             1275 34425 41310 
0.1296 -0.0282 -0.0674                             1530 30090 35955 
-0.2833 -1.0445 0.4513                             39780 39780 39780 
-0.2833 -0.0175 0.1548                             510 23970 32130 
-0.1457 -0.0494 0.1867                             1530 33660 40290 
-0.2621 -0.1975 -0.2581                             2040 32895 39525 
