ply
format ascii 1.0
comment VCGLIB generated
element vertex 1024
property float x
property float y
property float z
property uchar red
property uchar green
property uchar blue
element face 0
property list uchar int vertex_indices
end_header
-0.0716 -0.0388 0.6206                             765 29070 36975 
0.2460 -0.0494 0.6418                             255 33660 41565 
0.2037 -0.0388 0.3560                             765 27030 35955 
-0.2516 -0.2294 -0.2581                             1530 31875 39015 
-0.2621 -0.0812 0.5784                             1530 24480 33405 
-0.0928 -0.0282 -0.0569                             2295 32385 39015 
-0.1350 -0.0494 0.1336                             1785 33915 40290 
-0.0292 0.4059 0.7160                             255 26265 34425 
-0.2833 -1.0445 0.5255                             26775 26775 26775 
-0.2411 -0.0282 0.0807                             2295 34170 40800 
0.0131 -0.0282 0.0067                             2040 33660 40035 
-0.2833 -1.0233 0.7372                             35955 35955 35955 
0.2672 -0.0812 0.5677                             765 33150 40290 
-0.2833 -1.0340 0.7477                             43350 43350 43350 
0.1401 -0.0282 0.0490                             2295 35955 41310 
-0.1562 -0.0494 0.0596                             3060 34680 41055 
-0.1562 -0.0282 -0.0464                             1020 31365 38505 
-0.2940 -1.0445 0.7267                             38760 38760 38760 
-0.2833 -1.0869 0.3560                             41820 41820 41820 
0.2460 -0.0388 0.3031                             1020 30090 37995 
0.2779 -0.0388 0.3136                             1530 32385 39525 
-0.0399 -0.0282 0.0914                             2550 34425 41055 
-0.1033 0.3529 0.6843                             1275 29580 36720 
0.2567 -0.0494 0.4301                             765 31365 39270 
-0.2833 -1.0869 0.4406                             41565 41565 41565 
-0.2728 -0.0070 -0.0145                             1530 33660 40290 
-0.2516 -0.0175 0.1443                             1785 33915 40545 
0.1084 -0.0282 -0.0464                             1275 31365 37485 
0.1084 -0.0282 -0.0252                             1530 30855 37230 
0.3201 -0.0282 0.1336                             1020 26010 32895 
-0.2621 -0.1341 -0.2369                             3570 33915 40035 
-0.2728 -0.0070 0.4089                             1785 27795 36210 
0.0449 0.4059 0.7267                             2040 31110 38250 
0.2884 -0.0600 0.2607                             765 28305 35445 
-0.1245 0.3635 0.6843                             255 22185 29070 
-0.0611 -0.0282 0.0067                             2295 34170 40800 
-0.3045 -1.0764 0.4406                             39015 39015 39015 
0.0872 -0.1024 0.6418                             1530 30855 38505 
-0.2728 0.0566 0.5360                             510 32385 39525 
-0.3045 -1.0552 0.3455                             35190 35190 35190 
0.1401 -0.0705 0.5467                             765 27795 37230 
0.2249 -0.0282 0.1760                             510 27030 34935 
-0.2833 -0.0175 0.2714                             255 24225 32640 
-0.0821 -0.0282 -0.0252                             1020 32385 39270 
0.0979 -0.0070 0.6418                             1020 30345 37995 
-0.2621 -0.3353 -0.2793                             2040 19635 24735 
-0.2728 -0.4199 -0.2898                             2040 27795 34170 
-0.2833 -0.7375 0.7160                             42585 42840 43095 
-0.2516 -0.2505 0.6525                             1020 27540 35700 
-0.2833 -1.0445 0.4831                             42075 42075 42075 
-0.3045 -1.0552 0.3667                             42075 42075 42075 
-0.0928 0.4483 0.7160                             255 30090 36720 
-0.2516 -0.1129 0.6101                             255 29070 36720 
-0.1987 0.2683 0.6206                             1530 30345 37485 
0.3096 -0.0282 0.1126                             1275 24735 32130 
0.1508 -0.0282 -0.0569                             1020 28050 35445 
0.0025 -0.0282 0.6418                             765 28560 36975 
-0.2728 -0.2082 0.6313                             1020 29070 36975 
-0.2833 -0.0070 0.2184                             1020 27795 35955 
-0.0187 0.3529 0.6948                             255 24480 31365 
0.1613 -0.0600 0.4619                             255 29835 38250 
0.2779 -0.0388 0.3560                             1785 33915 41055 
-0.2833 -0.8433 0.7267                             45390 45390 45645 
-0.2940 -1.0552 0.3984                             33660 33660 33660 
-0.2411 -0.0175 -0.0464                             2295 34170 40800 
0.0237 -0.0282 -0.0674                             255 28050 34935 
-0.2940 -1.0552 0.5255                             41820 41820 41820 
-0.2940 -1.0445 0.5467                             42075 42075 42075 
-0.1457 0.4166 0.6948                             1530 24990 32130 
-0.2621 -0.1553 0.5996                             255 21165 29835 
-0.1669 0.4800 0.7055                             1530 34680 33915 
0.2460 -0.0705 0.5360                             1785 34170 41055 
0.0343 0.3105 0.6843                             1020 28305 35445 
-0.2833 -0.6316 0.7055                             28560 28305 29580 
-0.1033 -0.0282 -0.0357                             2550 33915 40290 
-0.2833 -0.0070 0.0596                             2295 34425 40800 
-0.2728 -0.4623 -0.2898                             2295 24480 31110 
0.2355 -0.0282 0.0596                             2040 21165 28815 
-0.2728 -0.6634 0.7055                             30855 30600 31875 
0.2460 -0.0282 0.1231                             1275 27795 34680 
-0.0187 -0.0282 -0.0781                             2040 28050 34680 
-0.2304 0.4905 0.6843                             1275 26775 34680 
0.0449 -0.0282 0.0702                             2040 34170 40800 
