ply
format ascii 1.0
comment VCGLIB generated
element vertex 1024
property float x
property float y
property float z
property uchar red
property uchar green
property uchar blue
element face 0
property list uchar int vertex_indices
end_header
-0.1140 0.2788 0.6525                             255 27795 35700 
-0.1350 -0.0388 0.1019                             2805 34425 41055 
-0.2833 -1.0552 0.5148                             16575 16575 16575 
-0.1881 0.3954 0.6843                             1785 26775 33405 
0.0449 0.3529 0.7055                             510 30855 37740 
-0.0187 -0.0917 0.6206                             510 29325 36975 
-0.2833 -0.0070 0.1019                             1785 28305 35445 
-0.1350 0.4695 0.7160                             765 30855 37995 
0.1189 -0.0282 -0.0569                             255 27795 34680 
-0.1140 0.4376 0.7160                             510 25245 32895 
-0.0399 0.5012 0.7477                             1275 30090 37230 
-0.2728 -0.8645 0.7372                             32130 32385 32895 
0.0555 -0.0282 0.0490                             3060 34935 41310 
-0.0716 0.5224 0.7477                             2040 36210 42585 
0.0767 0.4059 0.7267                             1530 32130 39015 
0.1930 -0.0282 -0.0145                             1020 30855 37485 
-0.1987 -0.0282 -0.0886                             1020 32130 39270 
0.0237 0.4905 0.7372                             765 34935 42075 
-0.2833 -1.0657 0.3877                             39270 39270 39270 
0.2989 -0.0282 0.1126                             255 25500 30600 
-0.2199 0.3105 0.6313                             1530 28815 35700 
-0.2621 -0.0175 0.0278                             2040 34425 40290 
-0.2833 0.0247 0.2501                             1785 31365 37485 
-0.0292 -0.0282 0.0067                             2550 34425 40800 
-0.3045 -1.0869 0.4196                             41055 41055 41055 
-0.2833 0.0035 0.0702                             2295 32895 39525 
0.2249 -0.0494 0.2501                             255 29070 37230 
-0.0292 0.3212 0.6843                             1275 28050 35445 
0.1296 -0.0494 0.6525                             510 31365 38760 
0.0979 -0.0282 -0.0252                             2295 28050 35445 
-0.2621 -0.3987 -0.2898                             2805 19890 23970 
-0.1881 0.4588 0.6948                             1530 34935 41565 
0.0449 0.2895 0.6736                             1020 29835 37485 
-0.1245 0.0035 0.5889                             1530 29835 37485 
-0.2833 0.0142 0.3136                             1020 23970 32640 
0.1508 -0.0282 0.0596                             2040 34680 41310 
-0.2516 -0.1553 0.6206                             1020 29325 36975 
-0.2728 -0.3670 -0.2793                             1020 27285 34935 
-0.2516 -0.2505 -0.2793                             255 27285 33915 
-0.1562 -0.0282 -0.0569                             1530 33660 40290 
0.3201 -0.0600 0.5148                             765 33660 41310 
-0.0081 -0.0282 0.0172                             2295 24990 32385 
-0.2833 -0.6846 0.7055                             41310 41310 41565 
0.3201 -0.0494 0.4513                             1530 33915 41055 
-0.2621 -0.1341 0.5889                             1020 32385 40035 
-0.2199 -0.0282 0.0807                             2295 34170 40800 
-0.0611 0.4166 0.7160                             1020 27285 34935 
0.2567 -0.0282 0.0807                             1275 23715 30600 
-0.1350 -0.0388 0.1336                             1530 34170 40545 
-0.2728 -0.7165 0.7160                             32895 33150 33660 
-0.1774 0.3424 0.6630                             510 27285 34170 
0.1508 -0.0282 -0.0674                             510 28050 34935 
0.0555 -0.0917 0.6418                             1020 27795 35700 
-0.2621 -0.2294 -0.2581                             2550 32130 35445 
-0.3045 -1.0552 0.3136                             43095 43095 43095 
-0.2728 -0.2717 0.6418                             510 27795 36975 
0.2884 -0.0388 0.2819                             765 31365 38505 
-0.2516 -0.2187 0.6418                             765 27540 35700 
-0.2728 -0.4729 -0.2898                             2295 26265 32640 
-0.0187 -0.0282 -0.0357                             2040 28305 34935 
0.1084 -0.0282 0.0067                             1785 19890 26010 
-0.2728 0.0247 0.3772                             1275 25500 33150 
-0.1457 0.3000 0.6630                             510 29070 36465 
-0.2728 0.4483 0.6313                             1275 32385 38760 
-0.1881 0.2683 0.6313                             765 29580 36975 
0.2460 -0.0388 0.3243                             255 29070 37485 
0.1825 -0.0282 0.6418                             255 30855 39015 
-0.1350 -0.0282 -0.0674                             3570 35700 38505 
0.0449 -0.0282 -0.0993                             510 27795 34170 
-0.1033 -0.0282 -0.0886                             2550 33150 39525 
-0.2728 0.3741 0.6101                             765 28815 35700 
-0.2940 -0.7375 0.7267                             40800 40800 41310 
-0.1350 0.3635 0.6843                             765 21930 28815 
-0.3045 -1.0552 0.4831                             42330 42330 42330 
-0.0821 0.5012 0.7372                             1785 32640 39780 
-0.0187 -0.0282 0.0490                             2040 34170 40800 
-0.0399 0.3635 0.7055                             1275 25500 32895 
0.1718 -0.0494 0.3772                             765 29835 37995 
0.3096 -0.0282 0.1443                             1275 28305 35700 
-0.2940 -1.0552 0.4301                             41820 41820 41820 
-0.2833 -0.9070 0.7477                             25245 25245 25245 
0.3308 -0.0282 0.2077                             2040 29580 35700 
0.2460 -0.0388 0.6418                             255 33150 41310 
-0.2833 -0.9811 0.7372                             43605 43605 43605 
-0.2833 -1.0764 0.5784                             39780 39780 39780 
