ply
format ascii 1.0
comment VCGLIB generated
element vertex 1024
property float x
property float y
property float z
property uchar red
property uchar green
property uchar blue
element face 0
property list uchar int vertex_indices
end_header
-0.0611 0.3317 0.6843                             1020 28560 35955 
-0.1562 -0.0494 0.1655                             1785 33660 40290 
0.2142 -0.0388 0.3136                             1020 30600 38505 
-0.1987 0.2576 0.6206                             1275 30600 37995 
0.3201 -0.0494 0.2714                             2550 30345 37485 
-0.3045 -1.0764 0.4936                             29070 29070 29070 
-0.0187 -0.0282 0.6418                             510 27540 36210 
-0.2516 -0.0282 0.1867                             2040 33915 40545 
-0.1457 -0.0494 0.1231                             2295 34680 41055 
0.1613 0.3954 0.7267                             1530 31620 37995 
0.0555 -0.0282 0.0596                             2805 35700 41820 
-0.2940 -1.0445 0.5784                             41565 41565 41565 
-0.2833 -1.0445 0.6313                             30600 30600 30600 
0.2567 -0.0388 0.2819                             255 30345 38250 
-0.2304 0.4376 0.6525                             2040 28560 35700 
0.1613 -0.0388 0.3136                             1020 26265 34680 
-0.1140 -0.0070 0.6101                             765 28560 36465 
0.2989 -0.0600 0.2607                             1020 27030 35700 
0.1189 -0.0282 -0.0674                             2295 31875 38505 
0.0131 -0.0282 0.1336                             2295 33150 39780 
-0.2728 -0.0175 0.3348                             1530 26265 34425 
0.2355 -0.0282 0.1443                             510 26265 34425 
0.2249 -0.0600 0.4725                             765 33150 40035 
0.1296 -0.0282 0.0067                             2040 19125 25755 
0.0237 -0.0282 -0.0886                             765 27285 33405 
-0.2728 -0.3565 -0.2898                             510 18105 25500 
0.2355 0.0035 0.6313                             510 34425 42075 
0.0131 0.4376 0.7267                             2040 29325 36975 
-0.2621 -0.3670 -0.2793                             1020 27285 33915 
-0.2516 -0.3670 -0.2898                             2040 28305 34680 
-0.2516 -0.0175 -0.0886                             3060 34425 41055 
-0.2833 -0.6104 0.6948                             39015 39270 39270 
-0.0187 -0.0282 0.0384                             3315 33405 40035 
0.2355 -0.0388 0.2926                             1275 27795 36465 
-0.2728 -0.6740 0.7160                             40800 40800 40800 
-0.2833 -0.0175 0.1548                             2040 28815 35955 
-0.2728 -0.3246 -0.2898                             1020 29325 36210 
-0.2728 -0.3670 0.6736                             1275 28050 36975 
-0.1245 -0.0282 0.0067                             2805 33915 40290 
-0.1669 -0.0282 -0.0252                             2295 33915 40545 
0.3201 -0.0282 0.1760                             1785 27540 34680 
-0.2621 -0.1024 -0.2369                             255 30855 37995 
-0.2621 -0.1765 -0.2793                             1275 31110 37230 
0.0660 -0.0282 -0.0357                             765 29070 35700 
-0.0928 0.3635 0.6948                             1785 25755 32640 
0.2460 0.0035 0.6101                             765 33915 41310 
0.2989 -0.0282 0.1126                             1020 24480 30855 
0.0555 -0.0282 0.1548                             1530 33150 39780 
0.0237 -0.0282 0.0172                             2295 34170 40290 
-0.1457 -0.0388 0.0384                             2550 34170 40290 
0.1825 -0.0282 0.1126                             255 21930 28560 
-0.2833 -1.0869 0.7160                             39780 39780 39780 
-0.3045 -1.0657 0.4196                             38250 38250 38250 
-0.1245 -0.0282 -0.0252                             255 28305 35700 
-0.0821 -0.0600 0.6206                             255 27795 36210 
-0.2833 0.0459 0.3031                             1785 33405 40290 
-0.1350 0.2576 0.6418                             765 27795 35955 
-0.1033 -0.0282 0.0490                             2040 33915 40290 
0.0343 -0.0282 0.0384                             2295 34425 40800 
-0.1774 0.3317 0.6630                             510 21420 28305 
-0.2516 0.4376 0.6418                             1020 28560 35700 
-0.0399 0.4905 0.7372                             2040 35700 36465 
0.0555 0.4588 0.7372                             1530 30855 37485 
-0.2199 0.3529 0.6525                             765 26010 33660 
-0.2728 0.0354 0.5467                             1020 35445 42075 
-0.2728 -0.7694 0.7372                             30855 31110 31620 
-0.2833 0.4695 0.6313                             510 29580 36975 
-0.1350 0.3212 0.6736                             1020 29070 36210 
-0.2621 -0.2717 -0.3003                             1785 30855 36975 
-0.2728 0.0142 0.3772                             1530 29580 37230 
-0.0399 -0.0282 -0.0886                             255 28050 34170 
0.0555 -0.0388 0.6525                             1275 31620 39015 
0.0343 0.4059 0.7160                             255 27540 34680 
0.2249 -0.0600 0.4619                             765 30345 38250 
-0.2199 -0.0282 0.0490                             2295 33915 40545 
0.2567 -0.0282 0.1231                             510 25500 32640 
-0.2940 -1.0869 0.3984                             40545 40545 40545 
