ply
format ascii 1.0
comment VCGLIB generated
element vertex 1024
property float x
property float y
property float z
property uchar red
property uchar green
property uchar blue
element face 0
property list uchar int vertex_indices
end_header
-0.2940 -0.7270 0.7160                             43095 43095 43095 
-0.2621 0.2683 0.5889                             1785 30090 37740 
-0.2621 -0.0175 0.5467                             255 30090 37995 
0.2567 -0.0494 0.4089                             510 30090 38250 
-0.2621 -0.2294 -0.2686                             1785 31620 38505 
-0.2728 -0.7904 0.7267                             39270 39270 38760 
-0.0504 -0.0282 -0.0145                             2550 33150 39780 
0.2884 -0.0388 0.6313                             510 33915 40800 
0.1189 -0.0282 -0.0145                             3060 33150 39270 
-0.1140 0.4800 0.7267                             510 27285 33915 
0.0872 -0.0388 0.6525                             1530 31365 38505 
-0.2728 -0.0282 0.2184                             510 26010 33915 
0.2355 -0.0388 0.2926                             255 30090 38250 
-0.2833 -1.0445 0.4725                             39270 39270 39270 
0.2460 -0.0282 0.1336                             255 28050 35445 
-0.2411 -0.1975 -0.2686                             1530 29835 36210 
0.1084 0.4166 0.7267                             1020 31620 37995 
-0.0716 -0.0388 0.6313                             765 28815 36720 
0.0343 0.4905 0.7477                             2550 36210 43095 
-0.0081 -0.0282 0.1019                             2040 33915 40545 
0.2989 -0.0600 0.4936                             1785 34170 41055 
-0.2728 -0.0175 0.0702                             3060 35190 41565 
0.0767 -0.0282 0.0596                             2550 35190 41565 
-0.2833 -0.0175 0.1019                             2295 33915 40290 
-0.2621 -0.3034 -0.2686                             1785 30090 36465 
0.1189 0.3847 0.7160                             1275 29835 36720 
0.1930 -0.0494 0.3984                             255 30345 38250 
-0.2516 -0.0175 0.0278                             2295 33915 39780 
-0.0821 0.3741 0.6948                             1020 26775 34425 
0.0025 -0.0282 0.1231                             2040 33660 40290 
0.0767 -0.0282 0.0384                             765 24225 30090 
-0.1881 0.2154 0.6101                             765 28815 36465 
-0.1562 -0.0494 0.0384                             2295 34170 40545 
0.0555 0.4483 0.7372                             1020 31365 38505 
0.3518 -0.0388 0.2501                             1020 30090 36975 
-0.1245 -0.0388 0.6101                             510 29070 36975 
-0.1457 -0.0494 0.1655                             1530 34170 40545 
0.0660 -0.0282 -0.0674                             765 27285 33405 
0.0025 0.4271 0.7267                             510 27285 34680 
-0.0187 -0.0175 0.6418                             1020 28560 36720 
-0.0081 0.4905 0.7477                             1785 36975 43350 
0.1718 -0.0494 0.2607                             1020 27795 36465 
-0.1140 0.3105 0.6630                             510 29325 36720 
0.0343 -0.0282 -0.0252                             1020 27540 33660 
-0.0821 0.2895 0.6630                             510 26775 34425 
0.0237 0.4483 0.7372                             765 29835 36465 
-0.1562 0.4166 0.6948                             255 23970 30600 
-0.2833 -1.0445 0.5360                             32640 32640 32640 
-0.2728 -0.0282 0.3877                             1020 32895 40035 
0.1508 -0.0282 0.0596                             1275 17595 22695 
0.0025 0.3529 0.7055                             1530 30090 37740 
0.1718 -0.0282 -0.0252                             1785 30600 37230 
0.0449 0.3212 0.6843                             1020 31110 37995 
-0.0399 -0.0282 -0.0145                             1785 32895 39525 
-0.2833 -0.8645 0.7372                             38250 38250 38250 
0.0343 -0.0282 0.0067                             3060 33660 40290 
-0.0187 0.2788 0.6630                             1785 29070 36210 
-0.0504 0.4800 0.7372                             255 27030 34680 
-0.1033 -0.0282 0.0490                             2295 34170 40545 
0.2884 -0.0388 0.3560                             1530 33660 40545 
0.0872 -0.0282 0.6525                             2040 30345 38250 
-0.2833 -1.0445 0.6418                             34170 34170 34170 
-0.2833 -0.0175 0.2819                             765 32640 39780 
0.2672 -0.0282 0.0702                             1275 22695 28305 
0.0872 0.4483 0.7372                             2295 31365 38505 
-0.2833 -0.6104 0.7055                             31365 31620 32640 
0.0872 -0.0282 0.0278                             1785 23715 29835 
-0.1774 0.4271 0.6948                             2040 28560 35700 
-0.1562 -0.0494 0.0067                             1275 29835 36465 
-0.3045 -1.0657 0.3984                             16065 16065 16065 
0.2037 -0.0388 0.6525                             255 33150 41055 
-0.2940 -1.0445 0.4725                             34680 34680 34680 
-0.2411 0.5117 0.6736                             765 32130 38760 
-0.0081 -0.0282 -0.0886                             765 27285 33405 
-0.1033 0.3424 0.6843                             255 27030 34935 
-0.3045 -1.0657 0.3772                             15810 15810 15810 
0.0131 -0.0282 -0.0145                             765 30345 36720 
0.3201 -0.0282 0.1126                             1020 23715 29835 
-0.2516 -0.2399 0.6418                             765 27285 35445 
0.2037 -0.0812 0.5677                             510 29070 37485 
-0.2728 -0.4094 -0.2793                             2550 27795 34425 
-0.2940 -1.0552 0.6736                             41055 41055 41055 
