ply
format ascii 1.0
comment VCGLIB generated
element vertex 1024
property float x
property float y
property float z
property uchar red
property uchar green
property uchar blue
element face 0
property list uchar int vertex_indices
end_header
-0.2833 -0.8858 0.7477                             42585 42585 42585 
0.3201 -0.0282 0.1655                             765 24480 31620 
0.1930 -0.0705 0.5148                             510 29070 37485 
0.0979 -0.0388 0.6525                             255 30600 38505 
-0.2516 -0.2611 -0.2581                             255 27030 34425 
-0.0399 0.3954 0.7160                             255 27030 34425 
-0.0716 0.2895 0.6630                             765 28050 36210 
-0.2621 0.3847 0.6206                             765 29325 36210 
-0.0081 -0.0282 -0.0040                             2040 33915 40035 
0.1613 -0.0494 0.4301                             255 28050 36720 
-0.2516 0.3105 0.6101                             2040 30600 37995 
-0.1881 -0.0282 0.0067                             1020 33150 39780 
-0.1562 -0.0388 0.1443                             2040 33660 40545 
-0.1457 0.4800 0.7160                             1530 35190 41820 
-0.2199 0.3212 0.6313                             255 26775 33915 
0.3837 -0.0600 0.2607                             2550 30345 37485 
-0.2621 -0.5999 0.7160                             38760 39015 39270 
-0.1774 -0.0282 -0.0357                             1530 33405 39780 
0.0555 0.3847 0.7160                             765 30090 36975 
0.2460 -0.0494 0.3984                             765 32130 39525 
0.2249 -0.0494 0.6418                             1020 33915 41055 
0.0660 -0.0705 0.6525                             510 25755 34680 
-0.2621 -0.0175 -0.0357                             1020 31620 37740 
0.2989 -0.0282 0.1336                             1785 26520 33660 
-0.2728 -0.3670 -0.2793                             1275 21675 27540 
0.2355 -0.0812 0.5572                             1020 32130 40035 
-0.1457 0.3212 0.6630                             255 27795 35445 
-0.1140 -0.0282 0.0807                             2295 34170 40800 
-0.0187 -0.0282 -0.0569                             1020 27540 33660 
0.0131 0.3529 0.7055                             1275 28560 35700 
-0.1881 0.4695 0.6948                             1785 31620 37995 
-0.0292 -0.0282 -0.0781                             1530 29070 34935 
0.0660 0.4588 0.7372                             510 27030 33405 
-0.1457 -0.0282 0.0807                             2040 34935 41055 
-0.2621 -0.0175 -0.0040                             2550 34680 41055 
-0.2516 -0.2505 0.6525                             255 28050 35700 
-0.0399 -0.0282 0.1548                             1785 33660 40035 
-0.1350 -0.0282 -0.0464                             2805 32640 39270 
0.1718 -0.0494 0.6525                             765 31110 39270 
-0.2304 0.4483 0.6630                             1020 27030 33915 
-0.0292 0.0035 0.6206                             510 28815 36720 
0.2672 -0.0282 0.1972                             2295 28815 36720 
-0.2833 -1.0552 0.5467                             18870 18870 18870 
-0.2833 -0.0070 0.3667                             1785 33405 40290 
0.0872 -0.0282 0.0067                             1785 29325 35955 
0.2989 -0.0600 0.4619                             765 34425 41055 
-0.2833 -1.0445 0.4619                             17085 17085 17085 
-0.2728 -0.0282 0.2926                             255 23715 32130 
-0.1881 -0.0282 -0.0357                             2805 34425 40800 
-0.1774 0.4483 0.6948                             1020 26265 33150 
-0.2833 -0.8858 0.7372                             39270 39270 39780 
-0.1245 0.4166 0.7055                             1530 25500 32640 
-0.2728 -0.2929 0.6525                             2040 31365 39015 
-0.0821 -0.0812 0.6206                             1785 27795 35955 
0.1718 -0.0282 0.0384                             2550 22950 29325 
-0.2516 0.0354 0.5360                             255 33660 41055 
-0.2199 -0.0282 0.1126                             2040 33915 40545 
0.2460 -0.0282 0.0384                             255 20400 26775 
-0.1350 -0.0388 0.1655                             2040 33405 40290 
-0.2833 -0.4834 -0.3003                             1275 27030 33405 
0.2672 -0.0600 0.4831                             765 33660 41310 
0.2460 -0.0282 0.1548                             510 26010 33405 
0.2037 -0.0282 0.0596                             255 20400 26775 
-0.3045 -1.0657 0.4196                             16830 16830 16830 
-0.0716 -0.0282 0.1019                             2295 34170 40545 
0.0131 0.0035 0.6313                             510 28050 36975 
-0.2516 0.5012 0.6630                             1275 30090 36720 
-0.0611 0.3424 0.6843                             1275 28560 35700 
-0.1457 -0.0282 0.0278                             510 32385 39270 
0.2672 -0.0494 0.2607                             1020 28305 35700 
0.3201 -0.0282 0.2077                             2295 27540 34425 
-0.2833 -1.0552 0.3877                             33150 33150 33150 
-0.2411 -0.1870 0.6206                             1020 29070 36720 
-0.0399 -0.0282 -0.0252                             2550 33150 39780 
-0.2728 -0.0070 -0.0464                             1785 33660 40035 
-0.2833 -0.0070 0.2289                             765 30855 37995 
-0.3045 -0.9811 0.7477                             41310 41310 41310 
0.2460 -0.0494 0.4301                             255 31365 39015 
-0.2621 0.4905 0.6525                             1785 30600 37995 
-0.2199 -0.0282 0.0596                             2550 35190 41310 
-0.1245 -0.0494 0.6101                             1020 29325 36975 
-0.0611 0.4588 0.7267                             1020 28815 35700 
0.0660 0.5012 0.7477                             1020 34935 42075 
