ply
format ascii 1.0
comment VCGLIB generated
element vertex 1024
property float x
property float y
property float z
property uchar red
property uchar green
property uchar blue
element face 0
property list uchar int vertex_indices
end_header
-0.1562 -0.0388 -0.0464                             255 31365 37740 
-0.2728 -0.0175 0.2184                             1785 31365 37485 
-0.2728 -0.8116 0.7372                             39015 39015 39015 
-0.1562 0.3212 0.6525                             1020 28305 35445 
-0.0611 -0.0282 -0.0569                             255 30855 37740 
0.1825 -0.0282 0.0172                             1020 21165 27540 
-0.2092 -0.0282 0.0702                             2295 34680 41055 
0.2460 -0.0282 0.0278                             765 21930 28815 
-0.2621 0.0247 0.5360                             510 34170 41055 
-0.2728 -1.0233 0.7477                             41820 41820 41820 
-0.1140 0.2471 0.6313                             1275 28560 36465 
0.2884 -0.0282 0.0702                             2550 24480 31620 
-0.2728 -0.0175 0.4089                             765 33660 40545 
-0.0504 0.4376 0.7267                             1020 28815 35700 
-0.0821 -0.0282 -0.0040                             1785 33405 39780 
0.3096 -0.0282 0.1760                             3570 28560 34935 
-0.1881 -0.0388 -0.0569                             1020 33150 40035 
-0.0081 -0.0282 0.1972                             2040 33150 40035 
-0.2728 -0.7904 0.7267                             34170 34425 34935 
-0.0187 0.4695 0.7372                             1020 29835 36465 
0.2779 -0.0494 0.3772                             510 32130 39780 
0.1296 0.4166 0.7267                             2295 31365 38505 
-0.2621 0.3954 0.6206                             765 30855 37740 
0.2355 -0.0494 0.3772                             1020 30090 37995 
-0.2833 -0.9916 0.7477                             42075 35700 35700 
0.0767 -0.0282 0.0807                             2295 34935 41310 
-0.2411 -0.0282 0.5784                             765 29070 36720 
0.2989 -0.0388 0.3667                             1785 34425 41310 
-0.0504 -0.0282 -0.0252                             2295 33915 40290 
-0.2728 -0.2611 0.6418                             510 29580 37740 
0.2142 -0.0388 0.2926                             765 29070 37485 
-0.2621 -0.2824 -0.2898                             1785 30345 36720 
-0.2304 0.3000 0.6206                             1530 28815 36210 
-0.2940 -1.0445 0.3560                             21675 21675 21675 
-0.1562 0.4588 0.7055                             1530 26520 33405 
0.0449 -0.0282 0.1443                             1530 33150 39780 
-0.2728 -0.5682 0.6948                             30600 30855 31620 
0.1189 -0.0282 -0.0252                             1785 32640 39780 
-0.2833 0.0142 0.3455                             1020 28305 36210 
-0.2833 0.3635 0.5996                             1020 29070 35955 
-0.2621 -0.4094 -0.2898                             2550 26520 32640 
0.2884 -0.0705 0.5255                             255 33660 40800 
-0.1350 -0.0388 0.1231                             2295 34680 41055 
0.3518 -0.0282 0.2184                             510 27285 34425 
-0.0292 -0.0282 -0.0464                             1530 29325 35700 
-0.1669 -0.0388 -0.0252                             2040 33660 40290 
0.3096 -0.0494 0.3877                             1530 33915 41055 
0.0237 -0.0282 0.1126                             2550 34425 40800 
-0.1881 0.4800 0.7055                             1275 27285 34425 
-0.3045 -1.0869 0.4513                             16830 16830 16830 
-0.2092 0.2895 0.6313                             255 26775 33660 
0.0767 -0.0282 -0.0040                             1785 33915 40290 
0.0131 0.3212 0.6843                             1530 28815 35700 
-0.2621 -0.3670 -0.2793                             255 28305 34425 
0.0343 0.4588 0.7372                             1785 31620 38505 
-0.2304 -0.0282 0.0278                             1275 32895 39780 
0.1508 -0.0282 0.6525                             510 30855 38760 
0.2037 -0.0388 0.2501                             1275 28815 36720 
0.0343 -0.0494 0.6525                             1275 27285 36210 
0.2672 -0.0812 0.6313                             1020 34170 42075 
0.2142 -0.0282 0.0702                             765 21675 27285 
0.0660 -0.0282 -0.0040                             1275 28305 34680 
-0.1562 -0.0494 0.1548                             2295 33660 40545 
0.1825 -0.0388 0.3031                             510 26265 34425 
-0.2516 -0.0175 0.0278                             2040 33405 40290 
-0.2833 -0.7694 0.7160                             43605 43605 43860 
0.3201 -0.0282 0.1760                             1785 29580 36210 
0.1296 -0.0282 -0.0145                             2040 34170 40545 
-0.2833 0.0035 0.1231                             1020 29580 36210 
-0.2621 0.0459 0.5467                             2040 34935 41820 
-0.1987 0.4588 0.6948                             1785 29580 35700 
-0.2833 -1.0340 0.7477                             32895 32895 32895 
-0.1774 -0.0282 0.0702                             2805 34425 41055 
-0.1881 0.3000 0.6418                             1020 29325 36720 
-0.2833 -1.0445 0.5996                             36465 32895 32895 
0.0343 0.3317 0.6948                             1785 29325 36720 
-0.2516 -0.2294 -0.2686                             2040 30855 37740 
0.0025 0.4588 0.7372                             1275 29325 35955 
-0.1881 -0.0282 0.0172                             2040 34680 41055 
0.0131 -0.0282 -0.0781                             2550 29070 34935 
0.0449 -0.0282 0.0172                             510 19890 26010 
0.2989 -0.0282 0.1760                             2295 28815 36720 
-0.2940 -1.0869 0.4619                             19125 19125 19125 
-0.2728 0.0035 0.0278                             3570 34935 41565 
