ply
format ascii 1.0
comment VCGLIB generated
element vertex 1024
property float x
property float y
property float z
property uchar red
property uchar green
property uchar blue
element face 0
property list uchar int vertex_indices
end_header
-0.2833 -0.0175 0.1126                             3060 33660 40290 
-0.0611 -0.0282 -0.0357                             765 30600 37230 
-0.0716 0.3105 0.6736                             1275 28305 36210 
-0.2092 0.5117 0.6948                             510 28050 35190 
0.3201 -0.0600 0.2607                             510 27795 34935 
-0.2516 -0.2187 0.6418                             1275 27795 35955 
-0.0611 -0.0282 -0.0040                             765 31365 38250 
0.0237 -0.0282 0.0490                             765 23460 28560 
0.2460 -0.0600 0.5148                             765 32385 40035 
-0.2833 -1.0552 0.5360                             42075 42075 42075 
0.0449 -0.0282 0.1760                             1785 33405 40035 
-0.2728 -0.7587 0.7372                             32130 32130 33405 
-0.0821 0.4588 0.7267                             765 27540 34170 
0.0237 -0.0812 0.6418                             510 26520 34935 
-0.2621 -0.0388 0.4513                             255 22695 30600 
0.2037 -0.0388 0.3031                             1020 27795 36210 
-0.2833 0.0035 0.3031                             1020 32640 40035 
-0.1987 0.2788 0.6313                             1530 29835 37485 
-0.2833 -1.0657 0.3560                             27285 27285 27285 
-0.1140 0.4483 0.7160                             255 28305 35700 
-0.2092 0.3317 0.6525                             510 28815 36720 
0.0025 -0.0282 0.1548                             2040 33915 40545 
-0.1457 0.3635 0.6843                             255 26520 34170 
-0.0187 0.3424 0.6948                             1530 28305 35700 
-0.2833 -0.0175 0.1443                             2805 28560 35700 
-0.2728 -0.3141 -0.3003                             1785 30345 36975 
-0.1033 -0.0388 0.6101                             765 29070 36720 
0.0555 -0.0282 0.6525                             765 31620 39270 
-0.2833 -1.0764 0.3772                             41820 41820 41820 
-0.2940 -0.6423 0.7055                             29325 29580 30345 
-0.2833 -1.0445 0.6313                             29070 29070 31620 
-0.1350 -0.0388 0.1655                             1785 33915 40545 
-0.2304 -0.0282 0.1019                             2295 34170 40800 
-0.2621 0.5012 0.6525                             510 32895 40035 
-0.0081 -0.0282 -0.0569                             1785 27795 34935 
-0.0611 0.5117 0.7477                             1020 29835 36465 
-0.1669 -0.0494 -0.0040                             1275 29325 36210 
0.1825 -0.0494 0.3772                             510 26520 35445 
0.1084 -0.0282 -0.0357                             1530 19635 26265 
0.2249 -0.0282 0.0172                             765 22440 29070 
-0.2621 -0.1553 0.6101                             1275 29580 37230 
-0.2833 0.0035 0.2077                             2295 31365 36975 
-0.0187 -0.0282 0.6418                             765 29325 36720 
-0.3045 -1.0657 0.4196                             41820 41820 41820 
-0.2940 -1.0552 0.4301                             41310 41310 41310 
0.2672 -0.0388 0.3136                             1275 31110 39015 
0.2779 -0.0282 0.0702                             2040 23460 29580 
-0.2940 -0.9070 0.7477                             34425 34425 35190 
-0.2304 -0.0282 0.0067                             2295 34935 41055 
0.0449 0.4483 0.7372                             2040 29835 36465 
-0.0399 -0.0282 0.6313                             510 28050 35955 
-0.3045 -1.0552 0.3984                             16065 16065 16065 
-0.0081 0.4376 0.7267                             1020 28050 35445 
0.0131 -0.0282 0.0490                             2805 34425 40545 
-0.2621 -0.0494 0.5784                             2040 30090 37740 
0.0979 -0.0282 0.0702                             2040 24225 31365 
-0.2516 -0.3670 -0.3003                             765 27540 33405 
-0.0928 -0.0282 -0.0569                             1275 29325 35955 
0.0767 0.3741 0.7160                             1275 29835 36975 
-0.2728 -0.3246 0.6736                             765 27795 36975 
-0.2621 -0.1870 -0.2474                             2040 33150 39525 
-0.3045 -1.0552 0.3667                             29325 29325 29325 
-0.1669 0.4376 0.6948                             1530 25500 32385 
-0.2199 0.3847 0.6525                             1785 28050 34425 
0.0767 0.4800 0.7477                             2295 32895 40800 
0.0555 -0.0388 0.6525                             255 30345 37995 
-0.2833 -0.0070 0.3772                             1275 28815 36720 
0.2672 -0.0812 0.5572                             255 32130 40035 
-0.2304 0.3000 0.6206                             1020 29070 36975 
-0.2621 -0.4729 -0.2898                             2295 24735 31110 
-0.1881 0.4695 0.6948                             1530 29325 35955 
-0.1457 -0.0494 0.0278                             2040 34170 40800 
0.1189 -0.0282 -0.0357                             1020 32385 39525 
-0.2833 -1.0128 0.7372                             36210 36210 36210 
0.2884 -0.0282 0.0914                             2040 25245 31620 
-0.2621 -0.3882 -0.2898                             1020 23205 31110 
