ply
format ascii 1.0
comment VCGLIB generated
element vertex 1024
property float x
property float y
property float z
property uchar red
property uchar green
property uchar blue
element face 0
property list uchar int vertex_indices
end_header
0.0979 -0.0282 -0.0040                             1530 19890 26010 
0.2884 -0.0388 0.3243                             1275 32895 40035 
0.2037 -0.0600 0.5043                             255 28815 37485 
-0.0504 0.4166 0.7160                             255 23460 31365 
-0.2833 -0.6423 0.7055                             36210 36210 36720 
0.2567 -0.0600 0.4831                             765 32130 39525 
-0.2621 -0.0388 0.5677                             255 28305 36210 
0.0979 0.4059 0.7267                             1275 31110 38505 
0.0449 0.3105 0.6843                             1530 31365 38250 
0.3308 -0.0494 0.2501                             2805 27285 33660 
-0.1033 -0.0282 0.6206                             510 26775 35190 
-0.2728 -0.0175 0.0172                             2550 34425 41055 
0.2672 -0.0282 0.1655                             255 21930 28050 
0.0237 -0.0388 0.6418                             765 30600 38250 
0.1508 -0.0282 0.0067                             2040 30090 36465 
0.2355 -0.0282 0.0807                             510 14025 18105 
-0.1140 0.4905 0.7267                             2040 27285 33660 
-0.2092 0.4376 0.6736                             1530 28050 35445 
-0.2411 -0.0282 0.1019                             2295 34170 40800 
-0.2940 -1.0445 0.3136                             14535 13260 13260 
-0.2728 -0.8645 0.7372                             46410 46410 46410 
-0.0611 0.2788 0.6630                             1785 29325 36465 
-0.1881 0.3954 0.6736                             765 24480 31365 
-0.1562 -0.0494 0.1548                             1785 33660 40290 
0.0025 0.3954 0.7160                             510 26010 32640 
-0.3045 -1.0552 0.4196                             40035 40035 40035 
-0.2833 0.0247 0.1548                             255 26520 34425 
-0.2621 0.4695 0.6418                             1275 34425 40035 
-0.2516 -0.2929 -0.2686                             1530 29835 36720 
-0.2411 -0.0282 0.1655                             1530 33660 40290 
-0.0928 0.5012 0.7372                             1275 29070 35955 
-0.0504 0.3635 0.6948                             765 27285 34425 
-0.2621 0.2788 0.5889                             1275 28305 35445 
-0.2940 -0.8433 0.7372                             38250 38250 37740 
-0.2728 0.4483 0.6313                             1530 31110 37995 
-0.2621 -0.0175 0.0067                             510 32385 39270 
-0.2728 -0.3565 -0.3110                             1785 24990 31620 
0.2884 -0.0388 0.2501                             1275 30855 38505 
-0.0292 0.2788 0.6630                             1275 28560 35700 
0.1613 -0.0282 0.0490                             1785 33660 40290 
-0.1140 -0.0282 0.0490                             2805 34680 41310 
-0.2516 -0.0175 -0.0357                             1785 32385 38760 
-0.1033 0.2895 0.6630                             1020 28560 32895 
-0.2092 0.2788 0.6206                             1530 28050 34935 
0.2567 -0.0175 0.6313                             510 34170 41565 
0.1084 -0.0282 0.0278                             2040 24990 31110 
-0.2940 -0.7482 0.7267                             42585 42840 43095 
-0.2199 -0.0282 0.0490                             2295 34680 41055 
-0.2940 -1.0128 0.7372                             37230 37230 37230 
-0.2304 0.4588 0.6630                             1785 29580 36720 
0.0343 -0.0282 0.1548                             2295 34170 40800 
0.2460 -0.0282 0.1443                             1530 26775 34680 
0.0025 -0.0282 -0.0674                             1530 27540 34170 
0.2249 -0.0388 0.3455                             510 28305 36465 
-0.2728 0.0035 0.3877                             510 33150 40290 
-0.0716 -0.0705 0.6206                             255 27285 35445 
-0.2304 0.3954 0.6525                             765 23205 30090 
0.2355 -0.0494 0.2501                             1530 24480 33405 
-0.2833 -0.0070 0.0278                             2805 34425 40545 
-0.2833 -1.0657 0.4301                             15300 15300 15300 
0.0449 -0.0282 -0.0464                             510 27285 33405 
-0.2833 -1.0233 0.7372                             33915 33915 33915 
-0.1881 -0.0282 0.0914                             2550 34680 41055 
-0.2728 -0.0175 0.3667                             1275 24735 32895 
-0.2940 -1.0552 0.5889                             36975 36975 36975 
-0.2621 -0.0917 0.5996                             1275 28050 35190 
0.0343 0.4483 0.7372                             255 28560 35700 
-0.0081 -0.0282 -0.0040                             3825 34935 41310 
-0.1774 -0.0388 -0.0886                             1785 33405 40035 
-0.0504 -0.0282 -0.0357                             255 28815 35955 
-0.0716 -0.0282 -0.0145                             2295 34170 40545 
0.0555 0.4166 0.7267                             765 30090 36975 
-0.2833 -1.0764 0.5043                             15810 15810 15810 
-0.0611 0.5117 0.7477                             1785 30600 36975 
-0.1033 -0.0282 -0.0252                             3060 33915 40290 
