ply
format ascii 1.0
comment VCGLIB generated
element vertex 1024
property float x
property float y
property float z
property uchar red
property uchar green
property uchar blue
element face 0
property list uchar int vertex_indices
end_header
-0.1881 0.2154 0.6101                             1785 28815 36465 
0.3308 -0.0282 0.2396                             2550 30345 36720 
-0.2092 -0.0282 -0.0357                             3060 34680 41310 
0.2037 -0.0282 0.1126                             1020 23205 31620 
-0.1881 0.4059 0.6843                             255 23715 31110 
0.0237 0.2683 0.6630                             1020 29580 37230 
0.0449 -0.0282 0.0067                             1275 28050 35445 
0.0237 -0.0494 0.6418                             1275 26775 34935 
-0.2516 -0.2187 -0.2793                             510 27795 34170 
0.0767 0.3105 0.6843                             765 29325 36210 
0.1189 -0.0388 0.6525                             765 31365 38760 
-0.1562 -0.0388 -0.0145                             765 30345 36720 
-0.1350 -0.0494 0.1126                             1785 33405 40035 
0.0767 0.5012 0.7477                             1785 32385 39015 
-0.2833 -0.0070 0.2819                             765 25500 33405 
-0.2411 0.5224 0.6736                             2550 29580 36465 
0.0979 0.4059 0.7267                             255 29835 36720 
0.2567 -0.0282 0.1867                             1785 28305 35445 
-0.2728 -0.4411 -0.2898                             1275 24735 31620 
-0.2304 0.3847 0.6418                             765 30090 36720 
-0.1457 0.4166 0.7055                             1530 27795 33915 
0.2567 -0.0494 0.2501                             510 28560 36975 
-0.0081 0.3847 0.7160                             1275 25500 32640 
-0.2728 -0.9494 0.7477                             32130 32130 43350 
-0.2833 -1.0764 0.4619                             39780 39780 39780 
0.3308 -0.0282 0.1972                             2550 28305 35700 
-0.0292 0.3105 0.6736                             1785 28815 35955 
-0.1033 0.2788 0.6525                             765 27795 35955 
-0.2833 -1.0764 0.7267                             20145 20400 20655 
0.0025 -0.0282 0.1867                             1785 32640 39525 
-0.2621 -0.4304 -0.2898                             2040 22185 28050 
-0.2833 -0.0070 0.0807                             765 28050 34680 
-0.3045 -1.0657 0.4513                             29325 29325 29325 
-0.2833 -0.0070 0.3772                             1020 29325 37485 
-0.0821 0.4271 0.7160                             1020 27540 34935 
-0.2833 -1.0552 0.5677                             40035 40035 40035 
-0.2516 -0.0175 0.1760                             2040 33660 40290 
-0.0292 -0.0282 -0.0464                             1020 27540 33660 
0.1825 -0.0282 -0.0040                             1275 28305 36210 
0.0872 -0.0282 0.0384                             2040 33915 40290 
-0.1140 0.4483 0.7160                             2040 27795 35445 
-0.3045 -1.0657 0.3772                             15300 15300 15300 
-0.2516 0.4376 0.6418                             510 29835 36975 
-0.0081 0.5117 0.7477                             2040 31110 38250 
-0.2833 -0.0070 0.1019                             1785 28815 34680 
0.3308 -0.0282 0.1336                             255 23205 30090 
-0.2621 -0.1975 -0.2581                             765 28560 35445 
-0.2621 -0.1234 0.5996                             255 26265 34425 
-0.2092 0.4905 0.6843                             1785 34935 41565 
-0.2728 -0.6634 0.7055                             43095 43095 43095 
0.2355 -0.0282 0.0278                             1530 22695 29325 
-0.2304 0.4588 0.6630                             1530 29835 36720 
0.2884 -0.0282 0.1760                             765 28560 35445 
-0.1774 0.4588 0.6948                             1785 35190 41565 
-0.3045 -1.0657 0.5043                             40545 40545 40545 
-0.1457 -0.0388 0.1655                             1785 33660 40290 
0.2037 -0.0282 0.0807                             510 19890 25500 
0.0025 -0.0282 0.0702                             2550 34425 41055 
-0.1562 -0.0388 0.1655                             2040 33660 40545 
0.2672 -0.0600 0.5148                             510 33915 41310 
-0.1033 0.3212 0.6736                             765 28305 35700 
-0.2304 -0.0282 0.0596                             1530 33150 39780 
-0.2940 -1.0552 0.5255                             28560 28560 28560 
0.2355 -0.0282 0.6418                             510 34425 42075 
0.1401 -0.0282 -0.0145                             1530 20910 26520 
-0.2728 -0.2824 -0.2793                             1785 28815 35445 
-0.2516 -0.0175 -0.0145                             2295 33660 40545 
-0.2940 -0.6104 0.7055                             38505 38505 38505 
-0.2833 -1.0340 0.7372                             41820 41820 41820 
0.0555 -0.0282 0.1336                             1275 32895 39780 
-0.2621 -0.0600 0.5889                             765 28815 37230 
-0.0611 -0.0282 -0.0674                             510 30600 37485 
0.2037 -0.0282 0.0067                             11220 30855 36720 
-0.2940 -1.0445 0.6101                             27795 27795 27795 
-0.2940 -1.0445 0.3984                             14790 14790 14790 
-0.2833 -0.9282 0.7477                             42075 42075 42075 
-0.2621 -0.3565 -0.2793                             1785 25245 30090 
-0.1881 -0.0388 -0.0781                             1530 33660 40290 
0.1401 0.3954 0.7267                             1785 32130 38760 
-0.0611 0.3741 0.7055                             765 23205 29325 
-0.2833 0.0035 0.2501                             2550 28815 35700 
-0.1457 -0.0388 -0.0040                             1020 32895 39780 
0.2142 -0.0282 0.0914                             1020 23715 30600 
-0.2833 0.2683 0.5784                             1275 27795 34935 
-0.0716 -0.0282 0.0067                             2295 34170 40545 
0.3308 -0.0600 0.4936                             1785 34170 41055 
-0.2833 -1.0445 0.6206                             42585 42585 42585 
0.2672 -0.0494 0.4196                             765 32895 40035 
0.2355 -0.0600 0.4619                             255 31620 39270 
0.2884 -0.0282 0.1019                             1785 23970 29835 
