ply
format ascii 1.0
comment VCGLIB generated
element vertex 1024
property float x
property float y
property float z
property uchar red
property uchar green
property uchar blue
element face 0
property list uchar int vertex_indices
end_header
0.2779 -0.0600 0.4619                             765 33660 40800 
0.2460 -0.0600 0.5148                             510 32895 40290 
0.1084 -0.0282 0.0067                             1275 19380 25500 
-0.1881 0.4376 0.6948                             1785 27540 36465 
-0.1457 -0.0388 -0.0145                             1530 33150 39780 
-0.2621 -0.2399 0.6418                             1020 29580 37995 
-0.0928 0.3424 0.6843                             1275 23460 29580 
0.0237 0.4905 0.7477                             1275 33915 40800 
-0.2833 -0.0070 0.3136                             255 29835 37485 
-0.2833 -0.8964 0.7267                             40035 40035 40035 
0.3201 -0.0388 0.3136                             510 33405 40290 
-0.0716 0.3212 0.6843                             1785 30090 37230 
-0.2940 -1.0445 0.5677                             39525 39525 39525 
-0.2411 -0.0282 0.1231                             1785 30090 36465 
0.2142 -0.0282 -0.0145                             1530 21420 28050 
-0.2411 -0.0282 0.1548                             2040 33915 40545 
0.0872 0.4800 0.7477                             2040 31365 38250 
-0.2728 -0.0175 0.2501                             765 26010 33915 
0.0449 -0.0282 -0.0993                             765 27795 35190 
0.3096 0.0035 0.6101                             1785 34680 41310 
-0.2940 -1.0552 0.4089                             42585 42585 42585 
0.0555 0.4059 0.7267                             2295 29835 37230 
-0.1140 0.5224 0.7267                             510 33915 40800 
-0.2833 -0.0175 0.3667                             255 22695 31365 
-0.2833 0.0354 0.1760                             1530 29325 36210 
0.0979 0.3741 0.7160                             765 31875 38250 
-0.2516 -0.2611 -0.2686                             510 27285 33405 
-0.1457 0.3212 0.6630                             510 27795 35445 
-0.2516 -0.0282 0.1972                             1785 33660 40290 
-0.2728 -0.3775 -0.2793                             2040 26265 32895 
0.3201 -0.0282 0.1548                             765 26775 33405 
-0.2304 -0.0282 -0.0674                             1530 33405 40035 
-0.2940 -1.0552 0.5148                             40545 14280 14280 
0.0449 0.2895 0.6736                             765 29835 37230 
-0.0821 -0.0282 -0.0040                             2295 34170 40290 
0.1084 -0.0282 -0.0569                             765 30345 36975 
-0.2833 -0.8223 0.7477                             33915 33660 34680 
-0.1774 0.3105 0.6525                             1020 29580 37485 
0.1084 -0.0282 -0.0145                             2040 32895 39780 
0.2884 -0.0282 0.1867                             1785 29580 36720 
-0.2411 -0.1658 -0.2474                             255 29835 37230 
0.1718 -0.0494 0.4089                             510 28050 36720 
-0.2940 -1.0552 0.7055                             42330 42330 42330 
-0.0716 -0.0282 0.6206                             765 29070 36720 
0.0979 -0.0282 0.0490                             2040 33915 40545 
-0.2199 0.3212 0.6313                             1530 28815 35955 
0.3518 -0.0600 0.2607                             1530 33915 40035 
0.0449 0.4483 0.7372                             1275 30345 36975 
0.1189 -0.0282 0.6525                             1020 30600 37740 
-0.2728 -0.5682 0.7160                             41565 41565 41565 
-0.1350 -0.0494 0.0702                             1020 33150 40035 
0.0343 0.2895 0.6736                             1530 29835 37230 
-0.0081 0.3741 0.7055                             510 24735 32130 
-0.0187 -0.0282 -0.0886                             510 26775 33405 
-0.0399 0.3212 0.6843                             765 28305 35445 
-0.2621 0.3000 0.5996                             1020 27795 34680 
0.0343 0.4166 0.7267                             510 28815 35700 
0.1930 -0.0388 0.3348                             255 26775 35700 
-0.2940 -1.0552 0.3560                             21675 21675 21675 
0.1825 -0.0388 0.2926                             1020 27795 36210 
-0.3045 -1.0764 0.4301                             43095 43095 43095 
-0.2092 -0.0282 0.0807                             2295 34680 41055 
-0.1350 0.5329 0.7267                             1275 36465 42840 
-0.2516 -0.1129 0.5996                             1020 29580 36975 
-0.2728 0.2895 0.5889                             255 29070 36720 
0.1508 -0.0282 0.0172                             510 18105 23715 
-0.2621 -0.0705 0.5677                             255 28560 36975 
0.2355 -0.0282 0.1655                             510 26265 34425 
0.2355 -0.0388 0.3136                             765 29070 37485 
-0.2728 0.3317 0.5996                             255 28560 35700 
-0.2411 -0.0388 0.5784                             1530 29580 37230 
-0.1245 0.4271 0.7055                             1530 28050 35445 
0.1189 -0.0282 -0.0357                             1530 28560 35700 
0.1825 -0.0812 0.5572                             255 29325 37740 
-0.2621 -0.1658 -0.2581                             2040 32640 39015 
0.3413 -0.0282 0.2289                             2040 30345 37485 
-0.0081 -0.0917 0.6206                             765 27285 35445 
0.0449 -0.0705 0.6418                             255 29325 37485 
-0.1245 -0.0494 0.6101                             1275 27540 35700 
0.2037 -0.0812 0.6418                             765 31110 39270 
-0.1457 -0.0494 0.1972                             1530 33405 39780 
-0.0081 -0.0282 0.0914                             2295 34170 40545 
-0.2833 -1.0764 0.7055                             39270 39270 39270 
0.2672 -0.0070 0.6313                             1275 34425 41310 
-0.0187 0.4905 0.7372                             1530 32640 39780 
-0.2092 -0.0282 0.0067                             2295 34170 40800 
-0.2833 -1.0657 0.4406                             30345 30345 30345 
-0.2621 -0.1341 -0.2369                             510 30855 37995 
-0.2833 -1.0552 0.3984                             13260 13260 13260 
0.0660 -0.0282 0.1548                             1275 32895 39780 
0.0131 -0.0282 0.0914                             2805 34425 40545 
0.2779 -0.0282 0.0702                             255 26775 34680 
