ply
format ascii 1.0
comment VCGLIB generated
element vertex 1024
property float x
property float y
property float z
property uchar red
property uchar green
property uchar blue
element face 0
property list uchar int vertex_indices
end_header
-0.1562 0.3000 0.6525                             255 26520 34935 
-0.1457 0.3212 0.6630                             1275 27285 35190 
-0.3045 -1.0764 0.4406                             19125 19125 19125 
0.0025 0.4905 0.7477                             1530 30090 37485 
-0.0187 0.4800 0.7372                             1785 27540 35190 
-0.2621 -0.0175 0.0702                             2040 32895 39780 
-0.2621 -0.1975 -0.2474                             1020 31110 37995 
0.2779 -0.0494 0.6313                             1020 34680 41820 
-0.0187 0.3212 0.6843                             1020 27540 34935 
-0.1774 0.2154 0.6101                             765 29325 36975 
-0.0081 -0.0282 0.2289                             2040 32895 39525 
0.2355 -0.0282 0.1443                             1530 29325 36975 
0.1296 0.3954 0.7267                             765 31620 38250 
-0.1457 -0.0388 -0.0040                             1530 32895 39015 
-0.3045 -1.0764 0.3984                             40545 40545 40545 
-0.0399 -0.0282 -0.0993                             1785 28050 34680 
-0.2940 -0.7270 0.7160                             30345 30600 31110 
-0.2833 -0.0175 0.2289                             1020 28560 36210 
0.0555 -0.0812 0.6418                             765 26520 34935 
-0.2516 -0.3458 -0.2793                             1530 28560 34680 
-0.2728 -0.8858 0.7477                             33150 33405 33405 
-0.0187 -0.0282 -0.0993                             1530 31620 38250 
-0.2833 -0.0175 0.3455                             510 26265 34680 
-0.2304 -0.0282 0.1548                             2040 33915 40545 
0.1718 -0.0812 0.5572                             255 27285 36210 
-0.2728 -0.4094 -0.3003                             2805 26265 32895 
-0.2833 -0.0175 0.3772                             255 31875 39525 
-0.3045 -1.0657 0.5043                             35190 35190 35190 
-0.2833 0.2683 0.5784                             2040 27795 34425 
-0.2621 -0.0175 0.5572                             1275 34935 41820 
0.2884 -0.0600 0.4936                             1530 34170 41310 
0.2355 -0.0705 0.5255                             255 29835 38250 
-0.0821 -0.0282 0.0702                             2295 34425 40800 
0.1930 -0.0494 0.2607                             255 26265 34680 
0.0343 -0.0282 -0.0569                             765 27285 33405 
-0.3045 -1.0764 0.3348                             26775 26775 26775 
-0.2092 0.2683 0.6206                             1275 28305 35445 
0.0025 0.2895 0.6736                             1020 28305 35445 
0.1084 -0.0282 -0.0357                             1020 28815 35445 
-0.2833 -1.0552 0.5360                             42585 42585 33150 
-0.2833 -0.6316 0.7055                             39270 39270 39270 
0.2779 -0.0600 0.5043                             1530 34425 41310 
-0.0716 -0.0812 0.6206                             765 27030 35190 
-0.1562 0.3635 0.6736                             510 21930 29580 
0.1508 -0.0282 0.0172                             3060 21420 26775 
-0.0821 -0.0282 0.6206                             765 29325 36975 
-0.0611 0.2683 0.6525                             1275 29580 36720 
-0.0081 0.0035 0.6206                             510 27540 36210 
0.0555 -0.0282 -0.0674                             1785 29325 36465 
-0.2621 0.5012 0.6525                             1275 30600 37995 
0.0131 -0.0282 0.0702                             765 32895 39270 
0.0343 0.3529 0.7055                             1785 31365 37740 
-0.2833 -0.9387 0.7477                             35190 35190 35190 
-0.2728 -0.2929 0.6525                             765 27030 35445 
0.0872 -0.0282 0.0596                             3060 35700 41820 
-0.2833 -1.0764 0.4831                             38250 38250 38250 
-0.1562 -0.0494 0.1231                             2295 34680 41055 
-0.2940 -1.0445 0.3560                             15810 15810 15810 
0.0979 0.4905 0.7477                             1020 32130 38505 
-0.2411 0.4905 0.6630                             1275 36720 42840 
0.3096 -0.0494 0.2501                             1275 30090 36465 
0.0872 0.3424 0.6948                             1275 30855 37995 
-0.2940 -0.8433 0.7267                             33405 33405 33150 
-0.1562 -0.0494 0.1548                             2040 33660 40545 
0.2672 -0.0282 0.0914                             510 21930 27540 
-0.1669 0.4271 0.6948                             1785 26520 33150 
0.1613 -0.0494 0.6525                             510 30855 38250 
-0.2516 -0.1870 -0.2474                             255 27030 33915 
0.1508 -0.0494 0.3772                             510 27540 36465 
-0.2728 -0.5046 -0.3003                             2550 26265 32385 
-0.2728 0.4059 0.6206                             1275 28815 35445 
0.2779 -0.0282 0.1019                             1020 23715 29580 
0.1508 -0.0282 -0.0040                             1530 30855 37230 
-0.2940 -1.0552 0.4725                             42585 42585 42585 
-0.2833 -0.0175 0.1972                             1785 33660 40545 
-0.2516 -0.1765 0.6313                             2550 28050 35700 
0.0872 -0.0282 -0.0040                             1530 32385 39270 
-0.2940 -1.0128 0.7372                             34170 34170 34170 
0.0237 0.3105 0.6843                             765 27795 35445 
-0.1987 0.4376 0.6843                             765 27030 34680 
-0.1140 -0.0282 0.0490                             3825 35445 41310 
-0.2411 -0.0282 0.0067                             1275 32895 39015 
0.0660 0.4059 0.7267                             2295 29835 37230 
