ply
format ascii 1.0
comment VCGLIB generated
element vertex 1024
property float x
property float y
property float z
property uchar red
property uchar green
property uchar blue
element face 0
property list uchar int vertex_indices
end_header
0.0131 0.3847 0.7160                             1275 28305 35700 
-0.2833 0.0247 0.3455                             1020 24225 33150 
-0.1562 0.2683 0.6418                             255 28815 36210 
-0.0187 -0.0282 0.1548                             1785 33660 40290 
-0.2833 -0.9175 0.7477                             33150 33405 33405 
0.0131 -0.0388 0.6418                             2040 29580 36975 
-0.2833 -1.0869 0.3455                             35190 35190 35190 
-0.2516 0.2471 0.5889                             1275 28815 36465 
0.2249 -0.0388 0.2926                             765 27795 35955 
-0.0504 0.3424 0.6948                             1530 29070 35955 
0.2567 -0.0705 0.5255                             1275 34425 41310 
-0.2728 -0.0070 0.0596                             2550 33915 40545 
-0.2833 -1.0869 0.4936                             42075 42075 42075 
0.1825 -0.0494 0.4196                             255 28050 36720 
-0.2621 -0.2824 -0.2898                             1275 33150 39525 
-0.2728 0.0247 0.5467                             255 32895 40035 
-0.2621 -0.3353 -0.2686                             1275 30345 37230 
-0.1140 -0.0070 0.6101                             765 29070 36720 
-0.0821 0.4271 0.7160                             1785 31365 37995 
-0.2516 -0.0282 0.1336                             1785 33660 40290 
-0.2833 -0.0175 0.1548                             1020 28560 35700 
-0.0504 -0.0282 0.0596                             2550 34680 41055 
-0.2728 -0.4094 -0.2898                             1785 25500 32385 
-0.1562 0.3212 0.6630                             1020 21675 29325 
-0.1774 -0.0388 -0.0569                             2040 32640 39270 
-0.2833 -0.4941 -0.3003                             765 27540 33150 
0.0131 -0.0282 0.0067                             1275 17085 22440 
-0.1881 -0.0282 0.1336                             1785 33660 40290 
-0.1033 0.3741 0.6948                             1020 23970 31620 
-0.2833 -1.0552 0.6206                             12750 12750 12750 
-0.2940 -0.6104 0.7160                             38505 38760 39270 
-0.0399 0.5012 0.7372                             2040 30090 36975 
-0.1033 0.2788 0.6525                             765 28050 36210 
-0.2940 -1.0445 0.3243                             17850 17850 17850 
0.2989 -0.0282 0.2396                             765 28560 34935 
-0.2411 -0.1446 -0.2474                             1530 32385 39015 
0.2249 -0.0812 0.5677                             510 31365 39270 
0.0872 0.3529 0.7055                             765 31365 37995 
-0.1881 -0.0282 0.0384                             2550 35190 41310 
-0.2728 -0.7165 0.7267                             38760 39015 39270 
0.1718 -0.0282 0.0384                             1020 19380 26010 
0.2249 -0.0282 0.1867                             1785 27285 35190 
-0.2516 -0.0812 0.5889                             1275 29325 36975 
-0.0504 -0.0175 0.6313                             1275 28305 35955 
-0.1033 0.4166 0.7055                             1275 26265 32895 
0.0555 -0.0282 0.1443                             11220 32130 38250 
0.0237 0.3424 0.6948                             1785 29835 37485 
0.0449 0.4905 0.7477                             1530 34170 41310 
-0.0504 -0.0388 0.6313                             1785 28305 36210 
0.2249 -0.0917 0.5889                             510 32895 40035 
0.2567 -0.0494 0.4406                             1785 34425 41310 
-0.2304 0.4483 0.6736                             1275 24480 31620 
0.2989 -0.0494 0.6313                             255 34680 42075 
-0.2940 -1.0445 0.7160                             35445 35445 35445 
-0.0504 -0.0282 0.0278                             2295 34170 40545 
-0.2728 -0.2399 0.6418                             765 27540 35700 
-0.1669 -0.0388 -0.0674                             2040 32385 38760 
-0.2621 -0.0282 0.3455                             765 22185 30600 
0.0872 -0.0600 0.6525                             255 27030 35445 
0.1296 -0.0282 0.0914                             1020 15045 18870 
-0.2621 -0.0917 0.5677                             255 26520 34935 
0.2460 -0.0282 -0.0040                             765 21930 28815 
-0.3045 -1.0764 0.5889                             40290 40290 40290 
-0.2411 -0.1870 -0.2686                             1275 29070 35955 
-0.3045 -1.0869 0.4406                             16575 16575 16575 
0.2142 -0.0600 0.4725                             510 31110 39015 
0.0131 -0.0282 -0.0040                             510 31365 38505 
0.2460 -0.0494 0.4301                             765 31365 39270 
-0.3045 -1.0869 0.3984                             41055 41055 41055 
-0.1881 0.3635 0.6630                             255 23715 31110 
0.0131 -0.0282 -0.0464                             1530 31620 38250 
0.2567 -0.0282 0.0914                             1020 25755 32640 
-0.0292 -0.0388 0.6418                             1275 27285 36210 
-0.3045 -1.0552 0.3348                             16065 16065 42840 
-0.1350 -0.0388 0.0490                             1530 32895 39525 
0.0025 0.3954 0.7160                             765 28050 35190 
-0.1033 -0.0282 -0.0886                             1785 33405 39780 
-0.3045 -1.0764 0.4831                             18360 18360 18360 
-0.2411 -0.0282 0.0914                             2550 35190 41565 
0.0872 0.3105 0.6843                             255 31110 38250 
-0.2833 -1.0340 0.7372                             42840 42840 42840 
-0.2833 -0.6953 0.7267                             41055 41055 41310 
