ply
format ascii 1.0
comment VCGLIB generated
element vertex 1024
property float x
property float y
property float z
property uchar red
property uchar green
property uchar blue
element face 0
property list uchar int vertex_indices
end_header
-0.1881 0.4905 0.7055                             2295 36465 43095 
0.0872 0.4166 0.7267                             510 30090 37230 
0.0025 -0.0282 0.1655                             2040 33405 40035 
0.1296 -0.0282 0.0490                             2550 34680 41055 
-0.0187 -0.0282 0.0384                             2040 33150 39780 
-0.2092 -0.0282 -0.0040                             1020 32130 39015 
-0.3045 -1.0657 0.5148                             33915 33915 33915 
-0.1350 -0.0175 0.5996                             765 28560 36210 
0.1718 -0.0600 0.4619                             255 27795 35955 
-0.2833 -1.0552 0.5784                             31365 31365 31365 
-0.2728 -0.0175 0.3136                             765 25245 33660 
-0.1562 0.4059 0.6948                             1020 24735 32130 
-0.0716 -0.0282 0.0278                             2550 34425 40800 
-0.0821 0.2895 0.6630                             510 28305 35700 
0.2460 -0.0917 0.6206                             1530 34425 41565 
-0.1140 0.2366 0.6313                             1020 29070 36465 
0.2355 -0.0282 0.0914                             2040 26775 34170 
-0.1562 -0.0388 0.0596                             1785 33660 40290 
0.0555 -0.0282 -0.0357                             2040 29580 36465 
0.2989 -0.0494 0.2714                             1530 32385 39525 
-0.2411 -0.0282 0.0278                             1530 33405 39780 
-0.2833 -1.0552 0.5360                             15045 15045 15045 
-0.0821 0.3317 0.6843                             1020 29070 36210 
0.0979 -0.0282 -0.0252                             765 18870 25755 
-0.2728 -0.4623 -0.2898                             2040 29325 30600 
-0.2621 -0.0600 0.5889                             765 30600 38760 
-0.2516 0.4905 0.6630                             2040 31875 38505 
-0.1987 -0.0282 0.1548                             1785 33660 40290 
-0.2833 -1.0552 0.6313                             37740 37740 37740 
0.2142 -0.0282 0.0702                             1785 22440 28815 
-0.2940 -0.6846 0.7160                             40545 40545 40545 
-0.2516 0.2471 0.5889                             255 30600 37740 
-0.2621 -0.1234 0.5889                             510 26010 34425 
-0.2199 0.3000 0.6206                             765 29070 36720 
-0.1562 -0.0282 -0.0464                             1530 31110 37230 
0.0449 -0.0600 0.6525                             765 27030 35190 
-0.3045 -1.0552 0.4089                             21930 21930 21930 
-0.2621 -0.1446 0.5889                             510 22440 30600 
0.0767 -0.0600 0.6525                             1275 30855 38760 
0.2037 -0.0282 0.1126                             255 21930 28560 
0.2355 -0.0494 0.2607                             510 30600 38250 
-0.1774 0.4588 0.7055                             255 31110 39780 
-0.2516 -0.3353 -0.2793                             1785 20145 28050 
0.2884 -0.0175 0.6313                             1275 34425 41820 
-0.2621 -0.3034 -0.2686                             765 30345 36720 
0.2989 -0.0600 0.4936                             765 32895 40035 
0.1930 -0.0282 0.0067                             1020 21420 27030 
-0.2621 -0.2717 0.6630                             510 27540 35700 
-0.2411 -0.1870 -0.2686                             2805 31365 37995 
-0.1350 -0.0282 -0.0040                             2295 34170 40545 
-0.0821 0.4695 0.7267                             1275 32385 39525 
-0.2833 -1.0869 0.3455                             13515 13515 13515 
-0.2728 -0.2717 0.6525                             1275 29580 37995 
-0.1669 -0.0282 -0.0252                             2040 33150 39780 
-0.2621 -0.2505 0.6525                             1530 31110 39015 
0.0237 -0.0282 -0.0464                             2040 28305 34935 
-0.1033 0.4271 0.7160                             1275 27285 33660 
-0.2621 -0.0175 0.4619                             1530 26265 34425 
0.0979 -0.0388 0.6525                             510 31365 39015 
0.2672 -0.0282 0.1655                             765 27795 34680 
-0.2940 -1.0552 0.5889                             42585 42585 42585 
-0.2411 0.4271 0.6525                             1530 22185 29070 
0.0343 -0.0282 0.0490                             2550 34935 41310 
0.2672 -0.0494 0.3667                             255 31365 39015 
-0.2199 -0.0282 0.0596                             2295 34425 41055 
-0.2411 0.3000 0.6101                             1275 29835 36720 
0.2460 -0.0812 0.5572                             255 33915 40800 
-0.2728 0.0671 0.5360                             255 32385 40035 
-0.2833 -0.0175 0.2396                             1785 29835 37485 
-0.0187 -0.0070 0.6313                             765 27285 34935 
0.3201 -0.0600 0.2607                             2550 31110 37740 
-0.1987 -0.0282 0.0067                             1020 32895 39780 
-0.0504 0.4376 0.7267                             2040 28305 35445 
-0.2833 -0.9916 0.7477                             45135 45135 41565 
0.2142 -0.0282 0.1655                             765 25755 33150 
0.2460 -0.0282 0.0702                             1020 23715 30090 
-0.2833 0.0035 0.2819                             1530 26520 34680 
-0.1140 -0.0282 -0.0145                             1020 33150 39525 
0.0131 0.4271 0.7267                             2295 31620 37740 
-0.0504 -0.0070 0.6206                             765 29325 36975 
-0.0292 -0.0917 0.6313                             1020 27285 35700 
-0.1562 0.3529 0.6736                             510 28305 35700 
0.0237 0.3105 0.6843                             1785 29070 35190 
-0.2411 -0.1553 0.6101                             1530 28305 36720 
-0.2728 -0.6953 0.7267                             42840 42840 42840 
-0.1350 -0.0494 0.1443                             1785 33405 40035 
0.0872 -0.0282 -0.0781                             510 30345 35955 
