ply
format ascii 1.0
comment VCGLIB generated
element vertex 1024
property float x
property float y
property float z
property uchar red
property uchar green
property uchar blue
element face 0
property list uchar int vertex_indices
end_header
-0.0928 0.2471 0.6418                             255 27795 35700 
-0.2199 0.3635 0.6525                             1530 24990 31875 
-0.1033 -0.0812 0.6101                             255 27540 35700 
-0.1245 0.2788 0.6525                             510 29835 37485 
-0.2621 -0.5258 -0.3110                             1785 25755 32385 
-0.2516 -0.3670 -0.3003                             255 26520 32130 
-0.2833 -1.0552 0.5360                             39015 39015 39015 
-0.2728 -0.9494 0.7477                             40545 40545 40545 
-0.2833 0.0142 0.2819                             765 29070 36210 
-0.2728 0.0566 0.5467                             765 33660 40545 
0.0237 -0.0282 -0.0569                             765 27285 33405 
-0.2411 -0.0282 0.0384                             2805 34680 41310 
-0.0716 -0.0282 0.0490                             2040 34170 40545 
-0.2833 -0.0070 0.3348                             255 23970 32130 
0.0343 0.4271 0.7267                             2295 31875 38505 
-0.1881 0.4059 0.6843                             1020 24735 32130 
0.1401 -0.0600 0.6525                             255 29325 37995 
-0.0399 -0.0282 -0.0252                             2805 33405 40035 
-0.2833 -0.9599 0.7477                             44370 44370 44370 
-0.2833 0.0035 0.3772                             765 27540 35955 
0.0979 -0.0282 0.0490                             1530 20145 26010 
-0.0187 0.3954 0.7160                             255 26265 33915 
0.0555 -0.0494 0.2607                             1785 32640 39525 
-0.2833 -1.0764 0.3348                             42585 42585 42585 
-0.2304 0.2683 0.6101                             255 29070 36210 
-0.0611 -0.0282 -0.0145                             2295 33150 39780 
-0.2728 -0.3034 -0.2793                             1530 28560 34935 
-0.1881 0.5329 0.7160                             1785 34935 41565 
-0.1350 0.4271 0.7055                             1020 26010 32895 
0.1401 -0.0705 0.6525                             1020 29580 37995 
-0.0928 0.3105 0.6736                             765 28305 35190 
-0.2411 -0.2187 -0.2581                             2295 30600 36975 
-0.2833 -1.0552 0.5255                             30855 30855 30855 
-0.0716 0.4588 0.7267                             2295 36465 42840 
-0.2304 -0.0282 -0.0145                             3060 34680 41310 
-0.0292 0.3000 0.6736                             1275 28305 35700 
-0.2940 -1.0445 0.5043                             41310 41310 41310 
-0.2304 0.4695 0.6736                             765 28050 35190 
0.0555 -0.0282 -0.0357                             765 29070 35955 
0.0979 0.4905 0.7477                             1530 31365 38250 
0.3625 -0.0282 0.1972                             2040 28050 34170 
0.0767 0.4271 0.7267                             1020 31110 37485 
-0.0611 -0.0282 0.1126                             2295 34170 40800 
-0.2728 -0.6634 0.7160                             31620 31875 32385 
0.0767 -0.0282 -0.0781                             510 28305 35700 
0.2460 -0.0494 0.4406                             765 30345 38250 
-0.1562 -0.0388 0.0807                             2040 34680 41055 
-0.1774 -0.0388 -0.0357                             1530 31365 37995 
-0.2092 0.5012 0.6948                             765 30600 37230 
0.2460 -0.0282 0.2501                             510 29325 37485 
0.0025 0.4588 0.7372                             510 28815 35700 
-0.2833 -0.8540 0.7477                             31875 32130 32640 
0.2037 -0.0282 -0.0357                             1530 29070 35700 
0.0343 -0.0282 -0.0145                             765 25245 30855 
-0.0716 -0.0388 0.6206                             255 27795 36210 
-0.0821 0.4271 0.7160                             1530 26520 33660 
0.0872 0.3317 0.6948                             510 30345 36465 
-0.2516 0.4905 0.6630                             1020 31620 38505 
0.2672 -0.0282 0.1760                             255 28305 36210 
-0.3045 -1.0552 0.3031                             14790 14790 14790 
0.2142 -0.0070 0.6418                             765 34680 41820 
0.0449 0.0035 0.6313                             1785 29580 36975 
-0.1350 0.3529 0.6843                             1020 22695 29835 
-0.1562 -0.0388 0.0384                             2550 34170 40800 
-0.2516 -0.3246 -0.2898                             1020 26775 33660 
-0.2940 -1.0445 0.5677                             32130 32130 32130 
0.2567 -0.0282 0.1126                             1020 22440 28305 
-0.2621 -0.0175 0.0278                             2805 34680 41055 
-0.2833 0.0247 0.2289                             1530 29835 36210 
-0.2728 -0.0282 0.2607                             765 25755 33915 
0.2779 -0.0388 0.3455                             1530 34170 41310 
-0.2940 -0.6316 0.7160                             37740 37740 37995 
0.0131 0.3954 0.7160                             510 27285 34425 
-0.1881 0.3317 0.6525                             510 29580 36720 
-0.2940 -0.9070 0.7477                             35445 35445 35445 
0.1825 -0.0494 0.2607                             765 27795 34680 
-0.1562 -0.0388 0.1336                             2040 34170 40545 
-0.0187 -0.0282 0.0278                             2040 33660 40035 
-0.2621 -0.2399 0.6418                             765 27540 35700 
0.3096 -0.0494 0.2714                             1785 29580 36465 
-0.2621 -0.1129 0.6101                             765 29325 36975 
