ply
format ascii 1.0
comment VCGLIB generated
element vertex 735
property float x
property float y
property float z
property uchar red
property uchar green
property uchar blue
element face 0
property list uchar int vertex_indices
end_header
0.5954 0.0776 0.2077                         21675 21675 21675 
0.1508 -0.0282 0.0384                         23970 23970 23970 
0.4366 -0.0388 0.2184                         42330 10965 10965 
0.3201 0.3424 0.6313                         25245 25245 25245 
0.4684 0.3529 0.6101                         22695 22695 22695 
0.6483 -0.5575 -0.3322                         41565 13770 13770 
-0.2621 0.2154 0.4725                         28560 28560 28560 
-0.0611 0.3741 0.7055                         26775 26775 26775 
0.3308 0.4905 0.6843                         24990 24990 24990 
-0.2516 -0.0282 0.2184                         25245 25245 25245 
0.6483 0.0883 0.5360                         39270 16320 16320 
0.2037 0.0776 0.4725                         21675 21675 21675 
0.5637 0.2154 0.5467                         22695 22695 22695 
0.5954 -0.3353 -0.3110                         41310 13005 13005 
-0.2728 -0.6423 0.7055                         48705 10710 10710 
0.0343 0.0035 -0.4169                         24480 24480 24480 
0.1930 -0.0282 -0.1840                         23970 23970 23970 
0.2567 -0.0282 0.2819                         25245 25245 25245 
0.5637 -0.0175 -0.1415                         25500 25500 25500 
0.5001 0.0671 0.4301                         20910 20910 20910 
-0.0928 -0.0812 0.5572                         25245 25245 25245 
0.3942 -0.0705 0.5572                         25500 25500 25500 
0.6378 0.3529 0.4831                         24735 24735 24735 
-0.2516 -0.2187 -0.2581                         42330 16575 16575 
0.5425 -0.0282 0.2819                         25500 25500 25500 
-0.2621 -0.1553 -0.2686                         38505 13515 13515 
-0.0081 -0.0494 0.4619                         25500 25500 25500 
0.1930 -0.0282 0.2077                         24990 24990 24990 
-0.2516 0.3212 0.5996                         33150 33150 33150 
0.6589 0.0247 0.1443                         25245 25245 25245 
-0.1562 -0.0600 0.3984                         41820 14025 14025 
0.5637 0.3635 0.6418                         21165 21165 21165 
0.2355 -0.0388 0.3243                         25500 25500 25500 
0.1718 -0.0282 -0.1310                         23970 23970 23970 
0.1718 0.0988 0.0702                         23205 23205 23205 
0.3942 -0.0282 -0.1310                         24735 24735 24735 
-0.1350 0.0671 0.4619                         22185 22185 22185 
0.3837 0.0566 0.5148                         20910 20910 20910 
0.2355 -0.0282 -0.0993                         23970 23970 23970 
0.3308 -0.0282 -0.0040                         24480 24480 24480 
0.3730 -0.0282 0.2396                         25500 25500 25500 
0.6696 -1.0764 0.3348                         42585 15045 15045 
0.1401 0.0988 0.3772                         21675 21675 21675 
0.6059 0.0247 -0.0781                         24990 24990 24990 
-0.0611 0.4376 0.7160                         27795 27795 27795 
0.3625 0.0776 0.4406                         21165 21165 21165 
0.0660 0.4059 0.6736                         27285 27285 27285 
0.7437 0.3212 0.4301                         26520 26520 26520 
0.4260 -0.0600 0.4089                         45645 22695 22695 
0.6166 0.3954 0.6206                         21675 21675 21675 
-0.3150 0.4376 0.5572                         31620 31620 31620 
0.0767 0.0988 -0.1628                         21675 21675 21675 
0.6378 -0.0175 0.1231                         25500 25500 25500 
0.5108 -0.0282 -0.0357                         25500 25500 25500 
0.3308 -0.0600 0.4513                         25500 25500 25500 
0.3518 -0.0282 0.6101                         21930 20655 20655 
0.6059 0.2895 0.5889                         20400 20400 20400 
0.4789 0.3847 0.6101                         22695 22695 22695 
0.5318 0.0883 0.1231                         21930 21930 21930 
-0.2516 -0.0282 0.4831                         32130 32130 32130 
-0.0187 0.3741 0.6525                         28050 28050 28050 
0.2355 0.0671 -0.3427                         22185 22185 22185 
0.6483 -0.1446 0.5996                         43860 18360 18360 
0.3518 0.3954 0.7055                         23460 23460 23460 
0.6059 -0.0388 0.3984                         25500 25500 25500 
0.1084 -0.0282 0.1443                         24480 24480 24480 
0.6271 -0.2082 0.6313                         45135 21420 21420 
0.2037 0.3635 0.6525                         26265 26265 26265 
0.6059 0.0671 0.0807                         22185 22185 22185 
-0.0504 0.4376 0.6736                         28815 28815 28815 
0.4049 -0.0600 0.5996                         21930 21930 21930 
0.0872 0.0459 0.5889                         21675 21675 21675 
0.1613 0.0988 0.2184                         22440 22440 22440 
0.4366 -0.0388 0.3772                         25500 25500 25500 
-0.0928 0.0566 -0.3003                         20145 20145 20145 
0.4049 0.5224 0.6736                         23970 23970 23970 
0.1718 -0.0282 0.2077                         24735 24735 24735 
0.0131 0.0988 -0.1098                         22440 22440 22440 
-0.1669 0.2788 0.6418                         26520 26520 26520 
0.5001 0.2471 0.6101                         20655 20655 20655 
0.2355 0.4588 0.6843                         26010 26010 26010 
0.5425 0.5224 0.6630                         22950 22950 22950 
0.1613 -0.0600 0.5043                         25500 25500 25500 
0.0237 -0.0917 0.6101                         25245 25245 25245 
0.6166 -0.1024 0.5677                         40800 21165 21165 
0.6271 -0.1341 0.5784                         47940 15300 15300 
0.0131 0.3212 0.6843                         24480 24480 24480 
0.1508 0.2683 0.6525                         43095 16575 16575 
0.6166 0.2683 0.5784                         20145 20145 20145 
-0.3045 -1.0764 0.2184                         43095 12750 12750 
0.1930 0.3105 0.6418                         26520 26520 26520 
-0.2092 0.0566 0.4196                         22440 22440 22440 
0.0872 -0.0282 0.2077                         24735 24735 24735 
-0.2621 0.0671 0.5255                         16575 16575 16575 
0.4578 0.4905 0.6525                         22695 22695 22695 
0.1508 -0.0388 0.3560                         25500 25500 25500 
0.7013 -1.0764 0.1655                         43860 20910 20910 
0.6696 0.4695 0.6101                         21930 21930 21930 
0.6166 -0.0388 0.4089                         25500 25500 25500 
0.3730 0.0988 0.2607                         21675 21675 21675 
-0.1987 -0.0812 0.5360                         38760 12240 12240 
0.5425 0.2366 0.5572                         22695 22695 22695 
-0.2833 -0.9704 -0.3427                         40545 22440 22440 
0.2672 -0.0282 0.1019                         24480 24480 24480 
0.6271 -0.6740 -0.3533                         47685 24735 24735 
0.7437 0.4166 0.4196                         32640 32640 32640 
0.4578 0.2895 0.6418                         21165 21165 21165 
0.6483 0.2047 0.4725                         25500 25500 25500 
-0.0187 0.0988 -0.0886                         21930 21930 21930 
-0.2728 0.3105 0.4619                         29070 29070 29070 
-0.2833 -0.6104 0.7160                         48960 27030 27030 
-0.1245 -0.0388 0.3455                         41565 12240 12240 
0.6059 0.4376 0.6313                         21675 21675 21675 
-0.2833 -0.6104 -0.3110                         47685 10965 10965 
-0.0928 0.4483 0.6630                         29835 29835 29835 
0.2989 -0.0282 -0.1098                         24480 24480 24480 
-0.3045 -1.0764 0.5572                         43605 12495 12495 
-0.1669 0.0988 0.2184                         21930 21930 21930 
0.6059 0.3529 0.5467                         22695 22695 22695 
-0.1987 -0.0282 0.0490                         25245 25245 25245 
-0.2621 -0.0282 0.2501                         25245 25245 25245 
0.0025 0.5329 0.7477                         27795 27795 27795 
-0.0928 0.5329 0.6843                         29580 29580 29580 
-0.2516 -0.1341 -0.2369                         49470 15555 15555 
0.6271 -0.5470 -0.3215                         45390 18615 18615 
0.2355 0.0988 0.3136                         21675 21675 21675 
0.2989 0.4376 0.7160                         24480 24480 24480 
0.4366 -0.0600 0.5043                         25500 25500 25500 
-0.1774 -0.0282 -0.2264                         24735 24735 24735 
-0.1774 -0.0282 0.1867                         24735 24735 24735 
0.6908 0.1624 0.4619                         29580 29580 29580 
-0.2411 0.3954 0.6418                         33150 33150 33150 
0.1930 -0.0494 0.3772                         25500 25500 25500 
-0.2833 -0.7694 0.7372                         41310 27540 27540 
0.0025 -0.0600 0.4831                         25500 25500 25500 
0.6271 -0.4941 -0.3427                         48705 12495 12495 
0.0449 -0.0494 0.4301                         25500 25500 25500 
0.7118 0.2895 0.5360                         22440 22440 22440 
-0.2199 0.3000 0.5677                         33405 33405 33405 
0.3625 0.0988 0.2501                         21675 21675 21675 
0.5318 0.0671 -0.0993                         22695 22695 22695 
0.5742 0.0776 0.1972                         21675 21675 21675 
0.6483 0.2154 0.4831                         25245 25245 25245 
0.0449 0.0988 -0.0252                         23460 23460 23460 
0.0660 0.3317 0.6525                         27285 27285 27285 
-0.2940 0.5012 0.5148                         26010 26010 26010 
0.6696 0.0035 0.3031                         25245 25245 25245 
0.1930 -0.0070 0.6418                         20400 20400 20400 
0.3413 0.5117 0.6843                         24735 24735 24735 
0.0025 0.3000 0.6313                         27540 27540 27540 
0.4789 0.0459 -0.2264                         24990 24990 24990 
0.3308 0.4588 0.6630                         24735 24735 24735 
0.7013 -1.0869 0.3984                         45390 26010 26010 
-0.1881 0.5224 0.7055                         29325 25755 25755 
0.6378 0.0035 -0.0357                         26010 26010 26010 
0.0343 -0.0282 -0.2686                         23970 23970 23970 
0.6059 -0.3775 -0.3322                         39270 16575 16575 
0.5637 -0.0175 -0.0040                         25245 25245 25245 
-0.2833 -0.0175 0.2077                         25245 25245 25245 
-0.2621 -0.1024 -0.2369                         50235 27285 27285 
0.5849 0.3635 0.6313                         21420 21420 21420 
0.1718 -0.0705 0.5467                         25500 25500 25500 
0.5637 0.0566 0.4196                         20655 20655 20655 
-0.1350 -0.0494 0.4513                         25245 25245 25245 
0.0872 0.0035 -0.4064                         24225 24225 24225 
0.0449 0.0459 0.5889                         21930 21930 21930 
-0.3150 0.3847 0.4725                         27795 27795 27795 
-0.2304 0.0459 0.4406                         22950 22950 22950 
0.4366 -0.0600 0.4301                         47175 26265 26265 
0.5318 -0.0282 -0.0464                         25500 25500 25500 
0.0660 0.0988 -0.2157                         21675 21675 21675 
0.0449 -0.0282 -0.2793                         23970 23970 23970 
-0.3045 0.2154 0.4831                         29070 29070 29070 
-0.2728 -0.3882 0.6630                         42840 18360 18360 
0.3730 0.2895 0.6525                         22440 22440 22440 
-0.2728 0.5117 0.5677                         26520 26520 26520 
0.7437 0.3105 0.4406                         25500 25500 25500 
0.3625 -0.0282 -0.2157                         24735 24735 24735 
0.0343 -0.0282 -0.2052                         23970 23970 23970 
-0.2833 -0.0070 0.2289                         26010 26010 26010 
-0.3150 0.4588 0.5255                         29580 29580 29580 
0.1401 -0.0494 0.4406                         25500 25500 25500 
0.3837 0.5224 0.6843                         24225 24225 24225 
-0.2411 0.0035 -0.1733                         16830 16830 16830 
0.0449 -0.0494 0.6525                         26265 26265 26265 
0.2037 0.4376 0.7267                         25500 25500 25500 
0.4896 0.0566 0.4619                         20910 20910 20910 
-0.2411 0.0354 0.4301                         23970 23970 23970 
0.0660 0.0883 -0.2474                         21675 21675 21675 
0.1930 -0.0282 0.1548                         24735 24735 24735 
0.2884 0.0988 0.0172                         22440 22440 22440 
0.4154 0.0354 0.5255                         20655 20655 20655 
0.2249 0.0035 0.6313                         20655 20655 20655 
-0.2621 -0.1446 -0.2581                         38505 10965 10965 
-0.0399 0.0988 0.2184                         22695 22695 22695 
0.5849 0.4271 0.5677                         22950 22950 22950 
-0.1881 0.0883 0.0914                         21675 21675 21675 
-0.0928 -0.0282 0.2819                         25245 25245 25245 
-0.0928 -0.0812 0.5784                         25245 25245 25245 
0.1401 0.0988 0.3455                         21675 21675 21675 
0.3201 0.0988 0.1231                         22440 22440 22440 
0.3201 0.0988 0.1443                         22440 22440 22440 
0.1401 -0.0282 -0.1945                         23970 23970 23970 
-0.1033 0.0776 -0.1945                         20910 20910 20910 
0.3308 0.3741 0.6948                         23460 23460 23460 
0.1613 -0.0282 -0.1840                         23970 23970 23970 
0.4049 0.0776 -0.2052                         22440 22440 22440 
0.7330 0.2471 0.4406                         26265 26265 26265 
-0.1245 -0.0282 -0.0781                         24735 24735 24735 
0.5954 -0.2505 -0.2793                         47685 13260 13260 
0.3518 0.4905 0.6736                         24480 24480 24480 
0.3942 0.0883 0.3560                         21675 21675 21675 
-0.2833 -0.6528 0.7160                         41565 26520 26520 
-0.2728 0.1942 0.5467                         32895 32895 32895 
0.4789 -0.0388 0.3031                         25500 25500 25500 
-0.1033 -0.0600 0.5148                         25245 25245 25245 
0.3201 -0.0600 0.4619                         25500 25500 25500 
-0.2411 -0.0812 -0.2264                         46920 13770 13770 
0.1930 -0.0282 -0.4064                         25755 25755 25755 
-0.3150 0.4905 0.5572                         29835 29835 29835 
0.5742 0.0566 -0.0674                         23205 23205 23205 
0.1084 -0.0494 0.2714                         43350 17085 17085 
0.6378 0.0459 0.3772                         19890 19890 19890 
0.4789 0.0671 0.4089                         21165 21165 21165 
0.0343 0.4376 0.6843                         27540 27540 27540 
0.1718 0.3105 0.6843                         23970 23970 23970 
0.2884 -0.0600 0.5043                         25500 25500 25500 
-0.0292 -0.0282 0.0490                         23970 23970 23970 
0.5954 0.0354 -0.0781                         24480 24480 24480 
-0.1774 0.0988 0.1867                         21675 21675 21675 
0.1718 0.2576 0.6418                         43350 15045 15045 
0.3518 0.4271 0.6525                         24480 24480 24480 
0.0343 0.2683 0.6418                         44880 22440 22440 
-0.0081 0.0035 0.6206                         22185 22185 22185 
0.1508 0.3529 0.6948                         24480 24480 24480 
0.5001 0.3424 0.6630                         20145 20145 20145 
0.1930 -0.0070 0.6313                         20910 20910 20910 
0.2672 -0.0070 0.6206                         20400 20400 20400 
-0.1457 -0.0388 0.2926                         41820 11220 11220 
0.3837 0.0988 0.0807                         21930 21930 21930 
0.6483 0.0459 0.2926                         20655 20655 20655 
0.1508 -0.0388 0.3348                         25500 25500 25500 
-0.2411 -0.0494 0.5784                         39015 16320 16320 
0.2355 0.3741 0.7055                         24480 24480 24480 
0.0343 -0.0917 0.6206                         25245 25245 25245 
-0.0504 0.4059 0.7160                         27285 27285 27285 
-0.0716 0.3105 0.6736                         25245 25245 25245 
-0.1881 0.0776 0.3772                         22185 22185 22185 
0.5108 0.3635 0.5889                         22950 22950 22950 
0.5001 0.0776 -0.0464                         21930 21930 21930 
0.1825 0.2683 0.6418                         41820 14025 14025 
0.6378 0.1095 0.5255                         39015 13770 13770 
-0.2411 0.0354 -0.0993                         17085 17085 17085 
0.6378 -0.0175 0.2077                         24480 24480 24480 
-0.2833 0.0354 0.2077                         23715 23715 23715 
0.6378 0.0035 0.5360                         49470 24480 24480 
0.2989 -0.0812 0.5889                         25500 25500 25500 
0.7330 0.3317 0.5148                         24735 24735 24735 
0.6908 -0.6104 0.6948                         48195 20910 20910 
0.2779 0.5012 0.7372                         24735 24735 24735 
0.6589 0.2788 0.5784                         21165 21165 21165 
0.3413 0.3424 0.6736                         22950 22950 22950 
-0.1350 -0.0494 0.1443                         44115 10965 10965 
0.1189 0.0354 0.5889                         21675 21675 21675 
0.5954 0.3847 0.5467                         22695 22695 22695 
-0.2304 0.4800 0.6101                         33405 33405 33405 
0.4366 -0.0388 0.1760                         42075 10965 10965 
0.4896 -0.0282 0.0702                         24990 24990 24990 
0.1084 0.0776 -0.2898                         21675 21675 21675 
0.4896 -0.0282 -0.1522                         24990 24990 24990 
0.4578 0.3424 0.6101                         22695 22695 22695 
0.5318 0.3529 0.6418                         20400 20400 20400 
0.6483 0.0142 -0.0145                         25755 25755 25755 
-0.2833 0.1835 0.4406                         19380 19380 19380 
0.5425 -0.0282 0.1867                         25500 25500 25500 
0.4154 0.0988 0.2184                         21675 21675 21675 
0.1296 -0.0282 0.6418                         22695 22695 22695 
-0.1140 -0.0282 0.0914                         24480 24480 24480 
0.7437 0.3954 0.4196                         31365 31365 31365 
-0.2940 0.1730 0.4831                         27030 27030 27030 
-0.1774 -0.0705 0.5043                         39525 14280 14280 
0.2460 0.0988 -0.1415                         21930 21930 21930 
-0.2304 0.1517 0.5467                         43605 12240 12240 
0.4896 0.0883 0.2289                         21675 21675 21675 
0.4472 -0.0282 -0.0886                         40035 13515 13515 
0.1189 0.0988 -0.0464                         23970 23970 23970 
0.2884 0.0988 0.1019                         22695 22695 22695 
0.6589 -0.6740 0.7160                         45390 16830 16830 
0.4789 0.3424 0.5996                         22695 22695 22695 
-0.1881 -0.0175 -0.2052                         24735 24735 24735 
-0.3045 -1.0764 0.6313                         43605 12240 12240 
-0.1033 0.0988 0.3031                         21930 21930 21930 
-0.2940 0.3741 0.5784                         33405 33405 33405 
0.2884 -0.0282 0.1972                         24990 24990 24990 
0.3201 0.3000 0.6206                         25245 25245 25245 
0.6696 -0.0070 0.3455                         24990 24990 24990 
0.7542 0.3954 0.4725                         26010 26010 26010 
0.4789 0.5329 0.7055                         24225 24225 24225 
0.7437 0.3212 0.4513                         26010 26010 26010 
0.6908 -1.0552 -0.3110                         42330 18870 18870 
0.2037 0.0988 -0.1203                         21930 21930 21930 
-0.2304 0.1517 0.5360                         48960 17340 17340 
-0.2411 0.0988 0.5255                         45135 17595 17595 
0.1508 0.0988 0.3560                         21675 21675 21675 
0.4366 -0.0388 0.1231                         42330 11220 11220 
0.2142 0.4483 0.6736                         26265 26265 26265 
0.6271 0.4059 0.5043                         23715 23715 23715 
0.5742 -0.0282 0.2819                         25500 25500 25500 
0.6483 -0.5470 -0.3533                         48960 22440 22440 
0.1508 -0.0282 -0.2581                         23970 23970 23970 
-0.0611 0.5224 0.7477                         28305 28305 28305 
0.4789 -0.0282 0.0067                         24990 24990 24990 
0.6271 0.4059 0.5255                         22695 22695 22695 
0.7013 0.3635 0.5677                         21930 21930 21930 
-0.1245 0.0566 -0.2686                         19890 19890 19890 
0.7225 0.4800 0.4406                         30855 26520 26520 
0.3625 0.4695 0.6736                         24480 24480 24480 
-0.0716 -0.0282 0.0278                         24225 24225 24225 
0.6908 -0.6316 0.6948                         49215 11475 11475 
0.2460 0.0247 -0.3851                         23715 23715 23715 
0.0237 0.0988 0.0702                         23205 23205 23205 
-0.2516 0.4483 0.5572                         33660 33660 33660 
0.6696 -0.5682 0.6843                         41055 23970 23970 
0.6378 0.3847 0.4831                         24480 24480 24480 
-0.0928 0.0988 0.1126                         22185 22185 22185 
0.6483 0.0247 0.0278                         24480 24480 24480 
0.7437 0.3741 0.4831                         25755 25755 25755 
0.2884 0.0776 0.4406                         21675 21675 21675 
0.3413 0.4905 0.6843                         24735 24735 24735 
-0.0716 0.0883 -0.1628                         21165 21165 21165 
0.0555 -0.0705 0.6418                         26775 26775 26775 
0.0660 -0.0282 0.1867                         24735 24735 24735 
-0.1881 0.4483 0.6313                         33660 33660 33660 
-0.2728 0.1517 0.4725                         19125 19125 19125 
-0.0187 0.4905 0.7372                         27285 27285 27285 
-0.3150 0.4483 0.5148                         28815 28815 28815 
-0.2516 0.0566 0.3772                         22440 22440 22440 
0.4896 -0.0600 0.4831                         25245 25245 25245 
-0.0504 0.0988 -0.0993                         21675 21675 21675 
0.3413 0.3847 0.7055                         23460 23460 23460 
0.5849 0.0671 0.0384                         22185 22185 22185 
0.1296 -0.0388 0.3243                         25500 25500 25500 
0.0660 -0.0600 0.4513                         25500 25500 25500 
0.4260 0.4695 0.6525                         23205 23205 23205 
-0.2092 0.0354 -0.1945                         14535 14535 14535 
0.4472 0.5329 0.7160                         25755 25755 25755 
-0.0928 -0.0600 0.2714                         43095 14790 14790 
-0.2728 -0.4199 0.6630                         46665 12750 12750 
0.5001 -0.0494 0.5677                         21930 21930 21930 
0.6271 0.0459 0.0172                         23205 23205 23205 
0.3413 0.0883 0.3243                         21675 21675 21675 
0.4684 0.0883 0.0384                         21930 21930 21930 
0.6483 0.2471 0.4513                         25755 25755 25755 
0.4789 -0.0600 0.4301                         49215 30345 30345 
0.6378 0.0671 0.5148                         26265 26265 26265 
-0.2833 0.3954 0.4619                         29835 29835 29835 
-0.1774 0.0883 0.1126                         21675 21675 21675 
0.4789 0.0988 0.1867                         21675 21675 21675 
0.3942 0.0776 0.3772                         21675 21675 21675 
-0.2411 0.0776 0.0914                         21165 21165 21165 
0.0237 0.3529 0.6525                         27540 27540 27540 
-0.0504 -0.0282 0.0172                         23970 23970 23970 
-0.2940 0.4166 0.5996                         33150 33150 33150 
-0.0292 0.0988 0.1231                         22695 22695 22695 
0.4154 -0.0070 0.5996                         16320 16320 16320 
-0.1245 -0.0282 0.3136                         25500 25500 25500 
-0.3045 0.2683 0.4089                         21675 21675 21675 
0.3308 -0.0282 -0.2793                         24990 24990 24990 
-0.2199 -0.0282 -0.1628                         49980 25500 25500 
0.4260 0.0883 0.3348                         21675 21675 21675 
-0.2940 -1.0552 0.2926                         35445 12495 12495 
0.0767 -0.0282 -0.3957                         25245 25245 25245 
-0.2621 0.0035 -0.0674                         19890 19890 19890 
0.6696 -1.0552 0.0596                         40035 21165 21165 
-0.0821 -0.0282 -0.1733                         24480 24480 24480 
-0.0611 0.3741 0.6948                         26520 26520 26520 
0.0025 0.0988 -0.0357                         22950 22950 22950 
0.5001 0.0883 0.1760                         21675 21675 21675 
-0.3045 0.4376 0.5572                         31620 31620 31620 
-0.1457 0.0883 0.3667                         21930 21930 21930 
0.5318 0.0035 -0.2264                         31365 31365 31365 
0.4684 0.0883 0.0702                         21930 21930 21930 
0.1930 0.3847 0.7160                         24735 24735 24735 
0.2567 0.5434 0.7055                         26265 26265 26265 
-0.2199 0.1624 0.5467                         46920 20655 20655 
-0.0187 -0.0282 0.1548                         24480 24480 24480 
0.7013 0.5012 0.5043                         25245 24735 24735 
0.7225 0.3529 0.3984                         32130 32130 32130 
0.2460 0.0988 0.3560                         21675 21675 21675 
-0.2833 -1.0764 0.5572                         42330 13515 13515 
-0.2304 0.0776 0.1867                         21675 21675 21675 
-0.0081 -0.0282 0.2396                         25245 25245 25245 
-0.2728 0.3954 0.6206                         33150 33150 33150 
0.5001 -0.0494 0.4619                         25500 25500 25500 
0.1084 -0.0282 -0.2686                         23970 23970 23970 
-0.2411 0.1835 0.5677                         29070 29070 29070 
-0.2728 0.1095 0.4936                         15300 15300 15300 
-0.2621 0.0671 0.2819                         21930 21930 21930 
0.2672 0.4695 0.6736                         25755 25755 25755 
0.5213 0.4271 0.6101                         22950 22950 22950 
0.5530 0.0566 -0.0993                         23205 23205 23205 
-0.1457 -0.0282 0.1548                         39780 10965 10965 
0.3096 0.0988 -0.1098                         21930 21930 21930 
0.5530 0.0566 0.4301                         20655 20655 20655 
0.0767 -0.0388 0.3877                         25500 25500 25500 
-0.2728 0.0776 0.5467                         49215 30345 30345 
0.0131 0.0247 0.6101                         21930 21930 21930 
-0.1245 -0.0600 0.5255                         25245 25245 25245 
-0.2516 -0.1870 -0.2898                         45900 9690 9690 
0.1508 -0.0282 -0.1840                         23970 23970 23970 
0.3942 0.4588 0.6630                         23970 23970 23970 
-0.2621 0.2576 0.5784                         33150 33150 33150 
0.1825 0.5434 0.7160                         26265 26265 26265 
0.2249 -0.0282 -0.1098                         23970 23970 23970 
0.0979 0.0354 0.5996                         21675 21675 21675 
-0.1881 -0.0388 0.3877                         25245 25245 25245 
-0.1881 0.0883 0.1019                         21675 21675 21675 
0.4366 -0.0600 0.4406                         47940 28305 28305 
0.2567 0.3212 0.6843                         23460 23460 23460 
0.0979 0.3000 0.6736                         23970 23970 23970 
0.4366 0.0883 -0.0252                         21930 21930 21930 
-0.1457 0.0035 0.5677                         23715 23715 23715 
0.1613 0.0988 0.2077                         22695 22695 22695 
0.1401 -0.0282 -0.2157                         23970 23970 23970 
0.6908 -1.0869 0.0490                         43095 14535 14535 
-0.2833 -1.0869 0.2396                         44370 18615 18615 
0.5954 0.0776 0.2607                         21165 21165 21165 
-0.0821 0.0988 -0.0674                         21675 21675 21675 
0.6483 -0.4094 0.6630                         38505 10710 10710 
0.6378 0.0354 0.4089                         18105 18105 18105 
-0.2833 -0.6528 0.7055                         46410 11985 11985 
-0.2833 -0.4623 -0.3110                         46920 22695 22695 
0.4366 -0.0494 -0.0252                         41820 13260 13260 
0.2989 0.4271 0.7160                         24480 24480 24480 
0.6166 0.4800 0.6525                         21675 21675 21675 
-0.0292 -0.0282 0.2184                         24990 24990 24990 
0.2142 0.3847 0.6630                         26520 26520 26520 
0.6483 0.3424 0.4513                         24735 24735 24735 
0.3096 0.3424 0.6843                         23205 23205 23205 
0.4789 0.5224 0.6630                         23970 23970 23970 
-0.2092 -0.0388 0.3667                         25245 25245 25245 
0.0555 0.2683 0.6630                         43605 17595 17595 
-0.2833 0.0459 0.2077                         22440 22440 22440 
0.5637 0.0459 0.4301                         20400 20400 20400 
0.5530 -0.0282 0.1231                         25500 25500 25500 
-0.2516 -0.0175 0.1336                         25245 25245 25245 
-0.2516 -0.1975 0.6101                         46920 14025 14025 
0.4260 0.4695 0.6525                         23205 23205 23205 
0.1401 0.0988 0.2077                         22695 22695 22695 
0.0872 0.0988 0.0172                         23970 23970 23970 
0.1189 0.3635 0.7055                         24735 24735 24735 
-0.1245 -0.0705 0.5889                         24990 24990 24990 
0.4472 0.0776 0.3877                         21165 21165 21165 
0.1401 0.3529 0.6948                         24480 24480 24480 
0.5108 0.2154 0.5784                         38505 19125 19125 
0.0237 -0.0282 0.1126                         24225 24225 24225 
0.3308 0.0671 -0.3003                         22440 22440 22440 
0.1084 0.3847 0.7160                         25245 25245 25245 
-0.1140 -0.0282 -0.0993                         24480 24480 24480 
0.0979 0.0988 -0.0886                         23460 23460 23460 
0.7013 0.3635 0.5572                         21930 21930 21930 
-0.1669 0.0988 0.2501                         21930 21930 21930 
0.1084 0.0988 0.1548                         23460 23460 23460 
0.5637 0.3741 0.6418                         21165 21165 21165 
-0.2728 0.3529 0.4513                         29580 29580 29580 
0.3730 0.0247 0.5677                         20400 20400 20400 
0.4154 -0.0600 0.2714                         42840 11475 11475 
-0.2833 0.3529 0.4301                         30090 30090 30090 
0.6483 0.3741 0.4831                         24480 24480 24480 
-0.1562 0.0566 0.4936                         22440 22440 22440 
0.4366 0.0035 0.5677                         19380 19380 19380 
-0.2516 -0.2505 -0.2793                         47685 24225 24225 
0.2779 -0.0175 -0.3851                         26520 26520 26520 
-0.0292 -0.0282 -0.0040                         23970 23970 23970 
0.1825 0.3847 0.7160                         24735 24735 24735 
0.3625 0.0247 -0.3533                         27285 27285 27285 
0.3942 0.4483 0.7055                         23460 23460 23460 
0.3308 0.0776 -0.2581                         22185 22185 22185 
-0.3257 0.4376 0.4831                         27540 27540 27540 
0.1296 -0.0282 -0.0569                         23970 23970 23970 
0.0131 0.0776 0.4301                         21930 21930 21930 
0.0767 -0.0282 -0.3215                         24225 24225 24225 
-0.2940 -1.0657 0.6736                         41310 21420 21420 
-0.2940 -1.0552 0.1336                         37995 13260 13260 
0.1189 0.4905 0.7477                         26010 26010 26010 
0.6378 -0.0175 0.2607                         23970 23970 23970 
-0.1562 0.2895 0.6418                         26010 26010 26010 
0.0660 0.0988 0.2077                         22950 22950 22950 
0.0872 -0.0282 -0.2157                         23715 23715 23715 
0.4366 0.0883 -0.0357                         21930 21930 21930 
0.1296 -0.0282 -0.4064                         25245 25245 25245 
-0.2516 0.0247 -0.0781                         17595 17595 17595 
0.4472 -0.0388 0.0278                         42840 11475 11475 
-0.1881 -0.0282 0.1443                         24735 24735 24735 
0.4154 -0.0600 0.4936                         25500 25500 25500 
0.0555 0.0776 0.4513                         21930 21930 21930 
0.6271 0.0671 0.5148                         25500 25500 25500 
0.1825 0.0671 0.5360                         21675 21675 21675 
0.4049 -0.0494 0.2714                         42840 10965 10965 
-0.0399 0.0883 -0.2369                         21165 21165 21165 
-0.1562 0.0883 0.3560                         21930 21930 21930 
0.4366 0.0671 -0.2264                         22950 22950 22950 
-0.2833 -1.0869 0.2819                         44370 22185 22185 
-0.0187 0.0776 -0.2686                         21165 21165 21165 
0.4789 0.0459 -0.2369                         26520 26520 26520 
0.5213 0.0883 0.2607                         21420 21420 21420 
0.0025 -0.0070 0.6313                         22185 22185 22185 
0.2884 0.0776 -0.2898                         22185 22185 22185 
0.3413 0.0988 0.2289                         21675 21675 21675 
0.3308 0.0988 0.3136                         21675 21675 21675 
0.2037 0.0988 -0.0993                         22695 22695 22695 
0.6483 0.0566 0.1760                         21675 21675 21675 
0.5425 -0.0175 -0.0464                         25245 25245 25245 
-0.2199 0.0354 0.4725                         22950 22950 22950 
0.0343 0.0988 0.2607                         21930 21930 21930 
0.4366 0.2683 0.6418                         21675 21675 21675 
0.5001 0.5117 0.6418                         22695 22695 22695 
0.5213 0.0142 0.5360                         18360 18360 18360 
0.4049 -0.0388 0.0807                         42585 11730 11730 
-0.1457 0.0247 -0.3110                         16065 16065 16065 
-0.2621 0.2366 0.5043                         31365 31365 31365 
-0.0081 0.0988 -0.1203                         21675 21675 21675 
0.1296 -0.0600 0.5148                         25500 25500 25500 
0.1296 -0.0388 0.3667                         25500 25500 25500 
0.0555 0.3105 0.6418                         27285 27285 27285 
-0.2199 -0.0812 0.5572                         38760 14535 14535 
0.0449 -0.0282 -0.2581                         23970 23970 23970 
0.6908 0.4271 0.4089                         25755 25755 25755 
0.2460 0.4483 0.6736                         25755 25755 25755 
0.5001 0.4800 0.6313                         22695 22695 22695 
0.3625 0.0988 0.2396                         21675 21675 21675 
0.2884 0.0988 0.0067                         22440 22440 22440 
0.4260 -0.0494 0.1548                         43605 12495 12495 
-0.0611 -0.0282 0.2289                         25245 25245 25245 
-0.1881 0.0671 0.3984                         22185 22185 22185 
-0.2940 -0.9494 -0.3427                         47685 17340 17340 
0.4684 0.4483 0.6313                         22695 22695 22695 
-0.0504 -0.0494 0.4089                         25500 25500 25500 
0.4260 0.3105 0.6630                         22185 22185 22185 
0.0025 0.0142 -0.4064                         22695 22695 22695 
0.5954 0.0776 0.2396                         21165 21165 21165 
-0.2304 0.0671 -0.0357                         20400 20400 20400 
-0.2411 0.0459 -0.0569                         19380 19380 19380 
0.3308 0.3000 0.6206                         24990 24990 24990 
-0.1245 0.0035 0.5889                         23460 23460 23460 
-0.2411 0.3317 0.6101                         33150 33150 33150 
0.0449 0.0776 -0.3215                         21165 21165 21165 
0.3730 0.4376 0.6525                         23970 23970 23970 
0.1296 0.0671 -0.3533                         21675 21675 21675 
0.5954 0.1200 0.5255                         44880 19635 19635 
0.4684 -0.0282 -0.0464                         40290 13770 13770 
0.1084 -0.0282 -0.3745                         25245 25245 25245 
0.6801 0.2683 0.5572                         21675 21675 21675 
-0.1774 -0.0388 -0.1203                         48450 30090 30090 
0.6166 -0.0282 0.3348                         24990 24990 24990 
0.3730 0.3954 0.6948                         23460 23460 23460 
0.5001 0.4905 0.6313                         22695 22695 22695 
-0.1245 -0.0812 0.5889                         25245 25245 25245 
0.0025 0.0988 -0.1415                         21675 21675 21675 
-0.0187 0.0988 0.0807                         22950 22950 22950 
0.4154 0.3212 0.6630                         22440 22440 22440 
0.5108 -0.0705 0.5360                         49215 18105 18105 
0.2884 -0.0282 -0.2157                         24480 24480 24480 
0.1296 0.0988 -0.2052                         21930 21930 21930 
0.2460 0.0988 -0.1415                         21930 21930 21930 
0.2884 -0.0282 0.1126                         24480 24480 24480 
0.2037 -0.0494 0.4406                         25500 25500 25500 
0.1930 -0.0388 0.3455                         25500 25500 25500 
0.0872 -0.0812 0.5889                         25245 25245 25245 
0.3942 0.0883 -0.0464                         21930 21930 21930 
0.1613 -0.0705 0.5255                         25500 25500 25500 
-0.0187 -0.0494 0.4406                         25500 25500 25500 
0.2989 0.0566 0.5467                         20910 20910 20910 
-0.2940 0.2471 0.4089                         21165 21165 21165 
-0.2304 -0.0175 0.5255                         31875 31875 31875 
-0.2516 -0.3353 -0.2793                         43860 18870 18870 
-0.0187 -0.0070 -0.4064                         23970 23970 23970 
-0.2199 0.0459 -0.1310                         18615 18615 18615 
0.5108 0.4905 0.6313                         22695 22695 22695 
-0.1669 -0.0388 0.3560                         25500 25500 25500 
0.4684 0.0883 -0.0040                         21930 21930 21930 
0.2884 0.0988 0.1126                         22695 22695 22695 
-0.1881 0.2259 0.5784                         30090 30090 30090 
0.3625 0.5329 0.6948                         26265 26265 26265 
0.2249 0.4376 0.6736                         26010 26010 26010 
-0.1350 0.3317 0.6630                         27540 27540 27540 
0.6059 0.0035 0.4725                         16065 16065 16065 
0.4154 0.0883 0.0067                         21930 21930 21930 
-0.2516 -0.0282 0.4089                         24735 24735 24735 
0.1930 0.2788 0.6630                         22695 22695 22695 
-0.3257 0.3635 0.4619                         27030 27030 27030 
0.7437 0.3212 0.4619                         25755 25755 25755 
0.1296 0.3317 0.6843                         24225 24225 24225 
0.3518 0.5329 0.7160                         26265 26265 26265 
-0.2833 -1.0764 0.6313                         42075 13515 13515 
0.5954 -0.1975 -0.3003                         45135 10965 10965 
-0.0292 -0.0388 0.6418                         27795 27795 27795 
0.1718 0.3741 0.7160                         24735 24735 24735 
-0.2621 -0.0388 0.5784                         50235 29325 29325 
0.2989 -0.0388 0.2501                         43860 16320 16320 
0.1825 0.0776 0.5148                         21675 21675 21675 
0.6589 -1.0869 -0.1733                         43095 11985 11985 
0.5425 0.0776 0.3031                         21165 21165 21165 
0.2142 0.5224 0.7055                         26265 26265 26265 
0.2460 0.3847 0.7160                         24480 24480 24480 
0.0979 -0.0600 0.4619                         25500 25500 25500 
0.0025 0.0776 -0.2898                         21165 21165 21165 
0.2672 0.3847 0.6525                         25755 25755 25755 
-0.2411 0.0459 0.4301                         22950 22950 22950 
0.3201 -0.0705 0.5148                         25500 25500 25500 
-0.2411 -0.0388 0.3877                         24735 24735 24735 
0.0767 0.0035 0.6313                         21675 21675 21675 
0.1508 -0.0282 -0.1203                         23970 23970 23970 
-0.0187 -0.0282 0.3136                         25500 25500 25500 
-0.2304 -0.0812 -0.2474                         49470 28305 28305 
0.1189 -0.0282 0.0702                         23970 23970 23970 
-0.1457 -0.0705 0.5677                         24735 24735 24735 
0.6271 0.0776 0.1760                         21675 21675 21675 
0.5637 0.3000 0.5572                         22695 22695 22695 
0.1825 -0.0388 0.3031                         25500 25500 25500 
-0.2833 0.2471 0.4089                         24735 24735 24735 
0.1508 0.0988 -0.1203                         22695 22695 22695 
-0.1350 -0.0600 0.5043                         25245 25245 25245 
-0.1457 0.2895 0.6525                         25500 25500 25500 
-0.2728 0.4905 0.6313                         33150 33150 33150 
-0.2728 -0.2717 0.6525                         47175 24735 24735 
-0.0081 -0.0812 0.5677                         25245 25245 25245 
0.3201 0.5224 0.7372                         24735 24735 24735 
0.5742 0.0776 0.3243                         20910 20910 20910 
0.2460 0.0988 -0.0040                         22695 22695 22695 
0.5954 -0.0917 0.5677                         39525 13770 13770 
0.6166 -0.1658 0.5996                         34425 12750 12750 
0.2142 -0.0282 -0.0569                         23970 23970 23970 
0.3308 -0.0282 0.1443                         24735 24735 24735 
0.5849 -0.0282 0.2819                         25500 25500 25500 
0.1613 0.3317 0.6843                         23970 23970 23970 
0.6483 0.2154 0.4725                         25500 25500 25500 
0.4578 -0.0388 -0.0569                         41820 12495 12495 
0.4049 -0.0282 -0.0464                         24735 24735 24735 
0.6271 -0.4199 -0.3427                         45645 11730 11730 
-0.2728 0.0566 0.2926                         21930 21930 21930 
-0.0504 -0.0282 0.0172                         23970 23970 23970 
0.2249 -0.0600 0.6418                         24735 24735 24735 
0.6271 -0.6740 -0.3745                         40035 18105 18105 
0.0343 0.4483 0.6843                         27540 27540 27540 
0.3518 0.4905 0.6736                         24480 24480 24480 
0.2249 0.0988 -0.1415                         21930 21930 21930 
0.1401 0.0988 0.0807                         23460 23460 23460 
0.2567 0.0988 0.3136                         21675 21675 21675 
0.1084 0.0988 0.2607                         21930 21930 21930 
0.3625 0.0883 -0.1098                         21930 21930 21930 
0.0237 0.0988 -0.1098                         22185 22185 22185 
0.3308 0.0776 -0.2264                         22185 22185 22185 
0.6271 -0.2717 0.6418                         46665 25245 25245 
-0.1669 -0.0282 -0.1310                         25245 25245 25245 
0.1930 0.0988 0.0278                         23205 23205 23205 
0.0872 -0.0282 -0.2369                         23715 23715 23715 
0.5530 0.0566 0.4406                         20655 20655 20655 
0.2355 0.0988 0.1655                         22950 22950 22950 
-0.2833 -0.4199 0.6736                         39270 10965 10965 
0.1930 0.3741 0.7055                         24735 24735 24735 
0.2037 0.0566 -0.3639                         21930 21930 21930 
-0.2833 -0.3882 0.6736                         40290 11220 11220 
0.2672 0.0566 0.5360                         21165 21165 21165 
-0.0611 -0.0812 0.5784                         25245 25245 25245 
0.6589 0.2576 0.4089                         23970 23970 23970 
0.3625 0.0776 0.4089                         21420 21420 21420 
-0.2728 -0.2082 0.6313                         44625 18105 18105 
-0.1033 0.4905 0.6736                         30600 30600 30600 
0.3730 0.0883 -0.1203                         21930 21930 21930 
0.6378 -0.6104 -0.3639                         45135 12495 12495 
0.2142 -0.0494 0.4619                         25500 25500 25500 
-0.1245 0.0035 -0.3322                         18105 18105 18105 
0.1613 0.0671 0.5467                         21675 21675 21675 
0.6271 -0.4729 -0.3427                         49470 15045 15045 
0.4366 0.0988 0.1126                         21930 21930 21930 
0.6483 0.0142 0.5360                         49725 17085 17085 
0.5637 0.3741 0.6313                         21165 21165 21165 
0.6589 -0.5999 0.7160                         43350 12495 12495 
-0.1457 -0.0494 0.1760                         43605 11475 11475 
-0.2411 -0.0282 0.5572                         23970 8670 8670 
0.1296 0.0988 -0.0781                         23460 23460 23460 
-0.2092 -0.0388 -0.1840                         49215 29580 29580 
-0.2833 0.2576 0.5572                         33150 33150 33150 
0.0237 -0.0282 0.1655                         24735 24735 24735 
0.0131 0.0776 0.4513                         21930 21930 21930 
0.2884 0.0883 -0.1628                         21930 21930 21930 
0.1825 0.0566 0.5467                         21675 21675 21675 
-0.2728 -0.7694 0.7267                         46665 20910 20910 
-0.2833 -0.5153 0.6948                         41310 10710 10710 
0.2567 0.0988 0.0914                         22950 22950 22950 
0.6271 0.5117 0.5572                         22695 22695 22695 
-0.2411 0.2154 0.5467                         33405 33405 33405 
0.7013 -1.0657 -0.1840                         41310 12495 12495 
0.2567 0.0988 0.0914                         22950 22950 22950 
-0.1987 -0.0282 0.2819                         25245 25245 25245 
0.4472 0.5012 0.6630                         22950 22950 22950 
0.0555 0.0776 0.4936                         21930 21930 21930 
-0.0821 0.4905 0.7372                         28305 28305 28305 
0.6483 -0.7058 -0.3745                         48450 10965 10965 
0.6378 -0.0175 0.1019                         25500 25500 25500 
0.5637 -0.0705 -0.2369                         49470 20655 20655 
0.5637 0.4588 0.5996                         22950 22950 22950 
-0.1881 0.4905 0.6313                         33660 33660 33660 
0.6696 0.4376 0.4619                         24735 24735 24735 
0.6801 0.1412 0.4831                         30090 30090 30090 
0.5637 0.0566 -0.0357                         22695 22695 22695 
0.4049 -0.0600 0.2926                         43095 10965 10965 
-0.2833 0.2683 0.4089                         25755 25755 25755 
0.6483 -0.4834 0.6736                         39015 11220 11220 
0.1401 0.0035 -0.4169                         12495 12495 12495 
0.6589 -1.0764 -0.2264                         42585 16065 16065 
0.6378 -0.1024 0.5784                         45390 22950 22950 
0.5954 0.5224 0.6630                         26520 26520 26520 
0.6696 -1.0764 0.3560                         43095 14790 14790 
0.3201 -0.0282 -0.1840                         24480 24480 24480 
-0.0187 0.5434 0.7055                         26520 26520 26520 
0.3201 0.0988 0.0278                         22185 22185 22185 
-0.1457 -0.0494 0.2501                         43860 11985 11985 
0.6059 -0.0175 0.1867                         25500 25500 25500 
-0.0292 0.0035 0.6206                         22440 22440 22440 
0.6483 -0.4094 0.6630                         38505 10710 10710 
0.1401 0.0671 0.5360                         21675 21675 21675 
0.6483 -0.0175 0.1655                         25500 25500 25500 
-0.0187 0.3105 0.6313                         28050 28050 28050 
0.3308 0.3529 0.6313                         25245 25245 25245 
-0.1350 -0.0282 -0.1098                         24735 24735 24735 
-0.2411 0.0247 -0.1310                         15300 15300 15300 
0.2355 -0.0282 -0.1310                         23970 23970 23970 
0.2142 -0.0600 0.5148                         25500 25500 25500 
0.1296 -0.0282 0.2077                         24735 24735 24735 
-0.1562 -0.0494 -0.0040                         42840 11730 11730 
0.0979 -0.0282 -0.3639                         25245 25245 25245 
0.0555 0.5012 0.6948                         27285 27285 27285 
-0.1881 -0.0175 0.5677                         31365 31365 31365 
