ply
format ascii 1.0
comment VCGLIB generated
element vertex 907
property float x
property float y
property float z
property uchar red
property uchar green
property uchar blue
element face 0
property list uchar int vertex_indices
end_header
-0.0946 0.3071 0.2224                     0 112 141 
0.3905 0.1782 0.5172                     7 108 131 
0.1633 -0.2947 0.2470                     135 135 135 
-0.0148 -0.3193 0.3023                     174 174 174 
0.5011 0.0124 0.1979                     0 80 91 
-0.0639 0.1905 0.0259                     2 106 138 
0.5072 0.0983 -0.0416                     11 125 146 
0.5011 0.0062 0.0443                     4 94 119 
-0.1192 0.4361 0.0751                     5 106 135 
-0.0578 0.1966 0.2409                     2 107 139 
0.5256 0.0676 0.3391                     7 109 135 
0.5318 0.0738 0.3391                     6 109 133 
0.2063 -0.3131 0.0259                     141 141 141 
0.5318 0.0676 0.3023                     9 113 136 
0.5011 -0.0122 0.3391                     8 87 112 
-0.1253 0.4791 0.0505                     6 122 149 
0.1694 -0.2824 0.1180                     119 119 119 
0.5133 0.0738 0.3944                     0 106 131 
0.5133 0.0369 0.3637                     0 111 137 
0.5195 0.0308 0.1733                     8 111 137 
0.2800 -0.3315 0.2961                     112 112 112 
0.5011 0.0124 0.1795                     4 59 68 
0.5011 0.0062 0.0996                     10 90 122 
0.4519 0.1536 0.3330                     10 135 161 
0.3475 0.2273 -0.0846                     1 122 150 
-0.1253 0.4423 0.3575                     8 122 147 
0.5256 0.0615 0.0014                     5 122 146 
0.5133 0.0615 0.3883                     2 112 139 
0.5011 0.0001 0.3330                     11 92 113 
0.0650 0.2457 -0.0662                     1 133 162 
-0.0701 0.2089 0.3330                     4 109 141 
-0.1192 0.4300 0.0751                     7 106 133 
0.4888 0.1413 0.2593                     9 134 159 
0.5318 0.0615 0.2040                     8 107 134 
-0.0639 0.2273 0.1549                     1 110 140 
0.5318 0.0492 0.1426                     0 105 131 
0.5256 0.1106 0.3023                     1 115 141 
0.5011 0.0001 0.1487                     3 96 122 
0.1142 0.2089 0.4497                     0 119 152 
0.5011 0.0062 0.2531                     8 92 118 
-0.0885 0.1720 0.4067                     1 108 144 
0.5256 0.0369 0.1610                     4 104 131 
0.1142 0.2212 0.4497                     0 122 156 
0.2554 -0.3254 0.0136                     157 157 157 
0.3660 0.2150 0.5356                     2 102 128 
-0.0824 0.2642 0.3146                     4 112 146 
0.5133 0.1352 0.1058                     5 128 155 
0.3475 0.2335 0.4988                     7 126 154 
0.5256 0.1168 0.2040                     8 117 145 
-0.1192 0.4484 0.1058                     1 105 135 
-0.0516 0.1720 0.2531                     0 108 141 
0.4949 -0.0122 0.2839                     5 90 113 
-0.1253 0.4238 -0.0048                     3 119 147 
0.5011 0.0308 0.3821                     3 105 124 
-0.1131 0.4238 0.0443                     4 108 134 
-0.0271 -0.3500 0.3146                     139 139 139 
0.5133 0.1168 -0.0232                     4 116 144 
0.5133 0.0308 0.3023                     3 103 125 
0.5318 0.1045 0.0382                     5 109 138 
0.4949 0.0247 0.0075                     9 101 128 
-0.0824 0.2580 0.2900                     2 115 145 
-0.0639 0.2212 0.0751                     2 110 141 
0.5256 0.1168 0.1856                     11 123 148 
0.5195 0.0369 0.0136                     3 114 140 
0.5318 0.0799 0.2654                     7 109 135 
0.5318 0.1045 0.1365                     9 111 140 
0.3967 0.1598 0.0259                     7 131 157 
0.5011 0.0124 0.3084                     5 72 87 
0.5133 0.1229 0.2839                     2 125 152 
-0.1192 0.3931 0.1733                     2 86 114 
0.5072 0.1291 0.3575                     13 130 156 
-0.0885 0.2949 0.0628                     0 111 142 
-0.0824 0.1966 -0.0171                     4 115 149 
0.5072 0.0799 -0.0355                     3 115 142 
-0.1192 0.4361 0.1672                     4 99 127 
-0.0946 0.3133 0.1426                     5 116 145 
-0.0946 0.3010 0.0566                     1 113 144 
-0.0946 0.2826 0.3575                     0 113 145 
-0.1192 0.4238 0.1303                     0 97 124 
-0.1253 0.4791 0.1242                     1 129 155 
0.4335 0.1106 -0.0723                     3 113 139 
0.5318 0.0983 0.2224                     8 115 142 
0.5133 0.1291 0.3023                     7 130 156 
0.5011 0.1352 0.0075                     9 132 158 
-0.1131 0.3747 0.2347                     0 85 110 
0.5195 0.1168 0.3268                     5 122 149 
-0.1131 0.3747 0.0689                     0 79 106 
0.5318 0.0676 0.0628                     8 110 136 
-0.0762 0.2335 0.0321                     2 111 142 
-0.1192 0.4484 0.0935                     11 110 140 
0.3537 0.1659 -0.0601                     3 101 133 
0.4888 0.1536 0.1303                     9 135 160 
0.4581 0.1598 0.0935                     10 138 162 
-0.0639 -0.3500 -0.0355                     181 181 181 
-0.0701 0.2396 0.1795                     5 112 142 
0.2124 -0.3193 0.0198                     135 135 135 
0.5318 0.0676 0.2839                     8 113 138 
0.5379 0.0799 0.0996                     4 111 135 
0.4765 -0.0122 0.4128                     8 98 122 
0.5011 0.0799 0.4251                     0 118 142 
0.4826 0.1475 0.0382                     10 138 162 
0.5195 0.1106 -0.0109                     6 119 144 
0.5195 0.1229 0.0996                     4 122 149 
0.5256 0.1168 0.0751                     4 119 146 
0.5195 0.0369 0.0382                     10 112 140 
0.3905 0.1475 -0.0662                     2 101 133 
-0.1131 0.4238 0.0505                     1 106 132 
0.4765 0.1475 0.0443                     6 130 157 
-0.0516 -0.3561 0.3575                     142 142 142 
0.5072 0.0185 0.1180                     3 102 125 
0.3660 0.2212 -0.0846                     5 121 147 
0.4949 0.0247 -0.0232                     6 106 132 
0.3537 0.2027 0.4804                     1 116 147 
-0.1131 0.4054 0.0628                     4 97 125 
0.5256 0.0922 0.3084                     0 107 132 
0.4704 0.1413 0.4312                     8 134 160 
-0.0824 0.2703 0.2900                     3 114 145 
0.5256 0.0615 0.0321                     4 105 136 
0.1264 0.2335 0.4619                     0 126 155 
0.4581 0.0738 -0.0601                     15 76 96 
-0.0824 0.2764 0.0321                     0 109 139 
0.5011 0.1352 0.3023                     9 129 156 
0.5072 0.1291 -0.0171                     5 125 153 
0.5011 0.0124 0.0812                     7 78 95 
0.4212 0.1229 0.5111                     0 84 108 
0.5195 0.1168 0.3146                     9 126 151 
0.5256 0.1168 0.0873                     6 120 147 
0.2186 0.2089 0.4619                     0 122 152 
0.4642 0.1536 0.2531                     10 135 161 
-0.0639 0.1905 0.0259                     0 101 135 
-0.1192 0.4668 0.1733                     7 114 141 
0.5011 0.0124 0.0996                     5 62 73 
-0.0516 0.1843 0.1119                     0 107 139 
0.4949 0.0001 0.3760                     2 90 109 
0.2738 -0.3315 0.0136                     57 57 57 
0.2001 0.1843 0.4435                     0 111 146 
0.5256 0.0799 0.3575                     3 108 131 
0.4888 -0.0183 0.1058                     6 99 124 
0.3782 0.2089 -0.0846                     6 117 147 
-0.1253 0.4238 0.3514                     5 114 144 
0.1510 -0.3131 0.1180                     156 156 156 
-0.1069 0.3747 0.0505                     3 82 109 
0.4458 0.0799 -0.0785                     9 107 133 
-0.1253 0.4791 0.2716                     1 124 153 
0.5256 0.0554 0.3391                     2 109 134 
0.4519 0.1475 -0.0232                     7 136 161 
-0.1131 0.3563 0.3391                     1 111 138 
0.4888 -0.0183 0.2224                     8 99 123 
0.5011 0.0185 0.2040                     9 77 96 
-0.1192 0.4484 0.0996                     10 108 139 
0.4826 0.1475 0.3391                     5 129 154 
-0.1192 0.4238 0.0935                     6 104 130 
0.1264 -0.2456 0.1426                     183 183 183 
0.5195 0.1106 -0.0048                     8 120 146 
-0.0824 0.2826 0.1979                     3 111 142 
-0.1192 0.3870 0.0014                     7 105 133 
-0.0946 0.3133 0.0566                     8 115 143 
-0.1192 0.4545 0.0935                     5 106 136 
0.1510 -0.2947 0.1672                     166 166 166 
-0.1192 0.4361 0.0689                     5 108 135 
0.5133 0.1291 0.2409                     7 129 154 
0.3782 0.1782 -0.0723                     2 104 136 
-0.0946 0.3071 0.3084                     6 113 141 
-0.1192 0.4545 0.1242                     6 108 138 
0.5379 0.0738 0.2040                     6 115 138 
-0.0701 0.2396 0.1856                     6 111 144 
0.5195 0.1291 0.2286                     3 124 150 
0.5256 0.0369 0.1426                     1 107 133 
-0.1376 0.4914 0.2531                     8 144 168 
0.4458 0.0983 0.4804                     2 94 122 
-0.0946 0.3071 0.0566                     0 107 138 
0.5256 0.1106 0.2409                     9 120 145 
0.5011 0.0062 0.1303                     0 93 109 
0.5133 0.0308 0.3084                     11 101 131 
0.5133 0.1291 0.3268                     4 130 155 
0.3598 0.2273 -0.0908                     1 126 157 
0.2800 -0.3315 0.0075                     105 105 105 
0.4949 0.1475 0.2040                     6 131 157 
-0.1131 0.3501 0.3330                     5 113 141 
0.5379 0.0922 0.1610                     3 109 138 
0.4642 0.1475 0.4067                     8 136 162 
0.4519 0.0861 0.4804                     4 81 106 
-0.1131 0.3931 0.2900                     4 95 123 
-0.1192 0.4545 0.2531                     7 109 138 
-0.0762 0.2212 0.3268                     8 114 145 
0.1326 0.2457 -0.0723                     0 134 163 
-0.1192 0.4423 0.3207                     3 110 138 
-0.1008 0.3379 0.0873                     5 111 140 
0.5133 0.1229 -0.0109                     5 123 150 
-0.1131 0.3563 0.3330                     0 107 135 
-0.0946 0.3256 0.0382                     7 113 144 
0.4949 0.0124 -0.0171                     8 95 124 
0.2493 0.1966 0.4558                     3 118 150 
0.5072 0.0247 0.0873                     4 102 128 
0.4949 0.1413 0.1058                     14 138 163 
0.5011 0.0124 0.1487                     3 84 94 
-0.0455 -0.3377 0.3453                     179 179 179 
-0.0946 0.3133 0.2654                     8 116 144 
0.5072 0.0492 0.3944                     7 110 139 
-0.1253 0.4361 0.3330                     5 115 141 
0.4151 0.1475 0.4988                     1 104 130 
0.5318 0.0799 0.0198                     7 113 141 
0.5011 -0.0061 0.0198                     4 102 127 
0.5195 0.0369 0.0566                     6 115 141 
0.3967 0.1782 -0.0785                     1 111 140 
0.5011 0.0492 0.4067                     0 109 131 
-0.0824 0.2642 0.0689                     0 113 144 
0.5318 0.0983 0.2777                     0 105 131 
-0.0701 0.2396 0.2531                     3 111 141 
0.5011 -0.0061 0.0996                     9 102 127 
0.5011 0.0062 0.2900                     7 83 108 
-0.1131 0.3993 0.0321                     6 102 131 
0.5133 0.1291 0.3268                     8 132 157 
0.4949 0.0308 0.4005                     0 103 128 
0.5256 0.0615 0.3514                     4 107 133 
0.2308 -0.3315 0.2531                     164 164 164 
-0.0824 0.2396 0.3453                     0 115 146 
0.5011 0.0001 0.2102                     4 94 119 
0.5318 0.1045 0.2716                     7 109 135 
-0.1131 0.3931 0.3084                     5 100 128 
0.5256 0.1168 0.1365                     2 115 140 
0.1264 -0.2333 0.1549                     124 124 126 
0.5011 0.1045 -0.0478                     5 117 141 
-0.1131 0.3440 0.3514                     2 116 142 
-0.1315 0.4607 0.0136                     6 117 144 
0.4335 0.1598 0.0075                     8 136 162 
0.5011 -0.0061 0.2409                     8 95 120 
-0.1069 0.3379 0.1672                     5 110 138 
0.5256 0.0492 0.2224                     6 108 134 
0.4704 0.0431 -0.0662                     10 111 139 
-0.0824 0.2764 0.0689                     2 114 144 
0.5133 0.0308 0.2654                     13 109 139 
-0.1008 0.3194 0.2347                     6 115 144 
-0.1131 0.3686 0.3268                     0 97 124 
0.5195 0.0369 0.0321                     6 107 134 
0.5011 0.0922 0.4251                     6 112 140 
0.5011 0.0124 0.0382                     11 70 89 
-0.0885 0.2764 0.3268                     6 113 147 
0.5318 0.0738 0.2716                     4 107 133 
0.4642 0.1536 0.0812                     13 137 162 
0.5195 0.0308 0.1365                     7 109 133 
-0.1192 0.4668 0.1242                     6 113 141 
0.5133 0.1291 0.0566                     11 133 158 
0.5011 0.0062 0.0935                     6 91 120 
0.2431 0.2273 -0.0723                     6 121 150 
0.0220 -0.3008 0.0505                     171 171 171 
0.5195 0.1045 0.3637                     2 109 137 
0.5133 0.1291 0.0751                     3 127 153 
0.5072 0.0554 -0.0293                     5 117 143 
-0.0639 0.2212 0.1180                     7 115 146 
0.3844 0.1843 -0.0723                     4 117 143 
0.5133 0.1229 0.3453                     10 127 153 
-0.1192 0.4545 0.2102                     0 108 135 
-0.1376 0.4730 0.3514                     7 122 149 
0.4642 0.0676 0.4681                     0 85 108 
0.1203 -0.2026 0.1365                     131 131 130 
0.5011 0.0124 0.2961                     3 76 88 
-0.0639 0.2335 0.1365                     0 112 142 
-0.0824 0.2826 0.1487                     0 113 144 
0.0036 0.2273 -0.0539                     0 116 149 
0.5256 0.0922 0.0014                     7 118 145 
-0.1376 0.4914 0.1058                     6 145 169 
0.3782 0.2089 0.5111                     8 115 141 
0.5318 0.0861 0.2839                     2 111 135 
-0.1069 0.3133 0.0014                     2 114 143 
0.5256 0.0799 0.0075                     0 109 138 
0.5133 0.0922 0.4005                     7 115 141 
0.0098 -0.3131 0.2716                     165 165 165 
0.4888 0.1475 0.2409                     13 138 163 
-0.1131 0.4054 0.0935                     1 94 124 
-0.1069 0.3379 0.1303                     3 110 137 
-0.1069 0.3133 0.3453                     5 117 147 
-0.1131 0.3379 0.3514                     4 118 146 
0.2738 0.2457 0.5049                     7 134 162 
0.5011 0.1413 0.0935                     8 131 158 
0.5379 0.0676 0.1979                     8 111 137 
-0.0455 0.1720 0.0873                     1 104 138 
0.5011 -0.0122 0.2470                     11 96 122 
-0.1008 0.3317 0.2163                     1 111 139 
0.4888 -0.0183 0.0628                     7 99 125 
0.5072 0.1168 0.4128                     4 120 146 
0.0528 -0.2824 0.2102                     152 152 152 
0.4028 0.1598 -0.0908                     9 111 134 
0.1572 -0.2885 0.2286                     153 153 153 
0.5318 0.0554 0.2040                     8 111 137 
0.5318 0.0738 0.2654                     5 107 134 
0.2493 -0.3193 0.2654                     120 120 120 
0.5011 0.0185 0.0628                     4 96 121 
0.0282 0.2457 -0.0662                     3 128 159 
0.1633 -0.2885 0.2224                     169 169 169 
0.3721 0.2150 -0.0908                     0 111 142 
0.5195 0.1291 0.1795                     10 130 155 
-0.1438 0.4484 -0.0171                     3 121 149 
0.4212 0.1413 -0.0846                     12 114 140 
0.4949 0.0185 0.0198                     8 94 105 
-0.1192 0.4361 0.1917                     3 102 128 
0.5011 0.0369 -0.0293                     4 115 142 
0.5011 -0.0122 0.1979                     4 96 120 
0.5011 -0.0061 0.0259                     9 104 130 
-0.0946 0.3071 0.2716                     2 111 140 
0.5318 0.0922 0.2716                     6 108 134 
0.4704 0.1475 0.0443                     10 136 161 
0.3967 0.1659 0.0873                     6 132 158 
-0.1131 0.3317 -0.0109                     0 112 141 
0.5011 -0.0122 0.1119                     10 104 128 
-0.0701 0.2335 0.0689                     1 107 139 
0.3475 0.1843 -0.0662                     0 106 137 
0.2493 -0.3254 0.3146                     165 165 165 
0.5011 0.0124 0.1058                     6 64 74 
0.1203 -0.1841 0.1426                     161 161 162 
0.5195 0.1045 0.3821                     0 113 139 
0.1203 0.2027 0.4435                     0 114 148 
-0.1069 0.3440 0.1242                     2 108 134 
-0.1192 0.4238 0.1119                     2 101 127 
0.1326 -0.3193 0.1426                     139 139 139 
-0.0885 0.2949 0.0259                     4 113 144 
0.5256 0.1168 0.1549                     5 116 143 
-0.1131 0.4054 0.0321                     6 104 133 
0.5318 0.0983 0.1365                     4 112 139 
-0.1131 0.3931 0.1180                     8 92 119 
0.5256 0.0922 0.3391                     4 108 132 
0.5133 0.1291 0.2286                     5 124 151 
-0.1192 0.3563 -0.0048                     0 105 132 
0.5011 0.0062 0.1180                     6 91 117 
0.3844 0.1782 0.4804                     1 112 142 
0.2738 -0.3315 0.3391                     169 169 169 
-0.1192 0.4668 0.1119                     10 116 143 
0.5133 0.1291 0.3084                     5 130 155 
0.5011 0.1352 0.1119                     10 133 159 
0.2370 0.2150 -0.0662                     5 111 143 
-0.1192 0.3440 -0.0109                     5 118 145 
0.4888 -0.0183 0.3575                     9 93 117 
0.5011 -0.0061 0.2593                     5 96 120 
0.5133 0.0615 0.3883                     4 113 140 
0.1203 -0.1903 0.1426                     162 162 163 
-0.1192 0.4668 0.1119                     6 114 141 
0.4458 0.1598 0.0751                     10 135 160 
0.2677 -0.3315 0.3268                     166 166 166 
0.5256 0.1168 0.0751                     5 122 148 
-0.1253 0.4791 0.2470                     6 123 150 
0.5072 0.0247 0.2839                     3 106 130 
-0.1315 0.3624 0.3821                     3 114 141 
0.5072 0.0185 0.1795                     5 81 98 
0.5011 0.1352 0.2531                     7 130 157 
-0.1315 0.4791 0.0198                     8 123 151 
-0.0885 0.2273 -0.0171                     0 117 149 
-0.0762 0.2642 0.0935                     1 114 144 
0.5256 0.0615 0.2777                     0 107 133 
-0.1008 0.3440 0.0382                     6 108 136 
-0.0332 -0.3315 -0.0048                     174 174 174 
0.2370 -0.3254 0.2593                     161 161 161 
0.4888 0.1536 0.2040                     8 133 159 
0.2861 0.1720 -0.0539                     6 96 130 
0.5318 0.0554 0.2593                     6 114 137 
-0.0824 0.2826 0.1672                     5 115 145 
-0.0639 0.2089 0.0873                     0 107 140 
-0.0824 0.2703 0.0505                     0 111 142 
0.5256 0.0615 0.3330                     8 110 136 
0.5256 0.0554 0.2777                     2 109 134 
-0.1131 0.3624 0.2102                     0 88 115 
0.4888 -0.0061 0.4005                     6 78 106 
-0.1192 0.3686 0.3453                     0 102 128 
-0.1192 0.4238 0.0628                     0 105 132 
-0.0885 0.2949 0.0382                     0 109 139 
-0.1131 0.3808 0.1979                     5 87 117 
0.4949 -0.0122 0.0443                     7 100 125 
0.2001 -0.3008 0.2409                     59 59 59 
0.3537 0.2273 -0.0846                     8 128 154 
-0.0824 0.2764 0.1242                     1 112 143 
-0.1192 0.4361 0.1303                     6 103 130 
-0.0639 0.2273 0.2163                     0 108 139 
0.5379 0.0738 0.1979                     3 112 137 
0.5011 -0.0061 0.1365                     11 103 128 
0.5256 0.0492 0.0689                     4 115 142 
0.4642 0.0554 -0.0662                     5 115 141 
0.2554 -0.3254 0.2777                     130 130 130 
-0.1315 0.4115 -0.0171                     0 120 148 
-0.1131 0.2949 0.3944                     5 121 151 
-0.1192 0.3686 0.0014                     3 98 125 
0.5011 -0.0122 0.1733                     5 96 120 
0.5133 0.0308 0.0873                     8 114 140 
0.1203 -0.1412 0.1365                     134 135 134 
-0.1315 0.4484 0.3514                     6 119 145 
0.1572 -0.3131 0.1119                     160 160 160 
-0.1069 0.3317 0.1979                     1 110 139 
0.2001 -0.3377 0.0628                     157 157 157 
-0.0701 0.2273 0.0812                     2 110 141 
-0.1315 0.3624 0.3821                     3 114 141 
0.5195 0.0861 -0.0109                     8 120 146 
-0.1192 0.4545 0.2102                     0 108 135 
-0.0946 0.3071 0.2163                     8 119 147 
0.5133 0.1352 0.1979                     7 130 155 
0.5011 0.0001 0.0566                     2 98 123 
0.0896 0.2150 -0.0539                     1 111 144 
-0.0824 0.2764 0.0628                     2 115 146 
0.3721 0.1905 0.4804                     2 117 146 
0.5133 0.0308 0.2716                     8 104 134 
0.4765 0.1475 -0.0355                     6 131 155 
0.4642 0.1598 0.1917                     10 136 161 
0.2370 0.2335 -0.0723                     3 123 153 
0.5195 0.0738 0.3698                     3 114 138 
0.5256 0.0983 0.3453                     3 107 131 
0.4888 -0.0183 0.0935                     8 102 127 
0.1326 0.1598 0.4312                     0 106 141 
-0.0639 0.2089 0.0689                     1 107 139 
-0.1192 0.4423 0.3207                     6 112 140 
0.1633 -0.2947 0.1303                     163 163 163 
0.5011 0.0062 0.1119                     10 91 123 
0.5256 0.0492 0.2777                     4 111 135 
0.5195 0.1229 0.1733                     8 124 150 
0.4212 0.1413 -0.0785                     4 114 141 
0.5256 0.1168 0.1549                     7 119 144 
-0.1131 0.3993 0.2839                     3 96 126 
-0.1069 0.3010 0.3760                     0 114 145 
0.2001 0.2027 0.4497                     0 117 150 
0.5318 0.0615 0.2409                     5 111 136 
-0.1069 0.3624 0.0566                     4 93 118 
-0.0639 0.1843 0.3391                     4 105 138 
0.2677 0.2150 0.4681                     5 121 153 
0.5011 0.0062 0.0812                     5 92 118 
0.4888 0.0001 0.4005                     6 87 109 
0.5195 0.0676 0.3698                     6 112 139 
0.3844 0.1598 -0.0662                     1 105 136 
0.0220 -0.3254 0.0566                     149 149 149 
0.1510 -0.2824 0.1365                     130 130 130 
0.5011 0.0001 0.3330                     7 89 109 
0.4212 0.1659 0.2531                     8 135 160 
-0.0762 0.2089 -0.0048                     0 108 143 
0.5256 0.0554 0.0935                     6 117 143 
-0.1192 0.4238 0.2224                     2 97 129 
0.5011 -0.0061 0.2347                     10 94 120 
0.5072 0.0247 0.2163                     7 104 130 
0.5133 0.0369 0.3637                     0 111 137 
-0.0762 0.2519 0.0321                     5 117 146 
0.5133 0.0247 0.1180                     5 105 129 
-0.1192 0.4238 0.0751                     5 104 130 
0.5011 0.0001 0.0382                     1 95 122 
0.5256 0.0492 0.0136                     6 108 138 
0.5011 -0.0061 0.0628                     17 112 135 
0.3475 0.1598 -0.0601                     3 96 127 
0.4458 0.0861 -0.0785                     8 106 132 
0.5256 0.0369 0.1733                     7 113 137 
0.5318 0.1045 0.2900                     2 111 135 
0.2124 0.1843 -0.0539                     5 98 128 
0.0712 0.2212 0.4497                     0 119 151 
0.5072 0.1291 -0.0171                     8 127 154 
0.3045 0.1782 -0.0601                     4 94 129 
-0.1131 0.4177 0.0505                     2 105 134 
0.3660 0.1905 0.4804                     3 113 143 
-0.1192 0.3931 0.1733                     2 87 114 
0.4089 0.1598 -0.0785                     8 115 143 
0.5379 0.0676 0.0751                     6 107 134 
0.4519 0.1536 0.3391                     12 137 162 
0.5072 0.0247 0.0935                     4 107 133 
-0.0946 0.3010 0.2900                     4 106 136 
0.5379 0.0799 0.0689                     5 116 142 
-0.1069 0.3133 0.3514                     4 117 147 
0.4826 0.1475 0.0996                     10 133 159 
0.5011 0.0001 0.0505                     5 101 126 
0.5072 0.0922 -0.0355                     9 120 146 
-0.0762 0.2642 0.1549                     4 113 144 
-0.0946 0.3194 0.2716                     0 109 137 
-0.1131 0.3870 0.2286                     1 90 120 
0.5318 0.0861 0.0259                     5 110 139 
0.2124 0.1905 -0.0539                     3 97 127 
0.5133 0.1229 0.0382                     3 124 151 
0.2431 -0.3193 0.0382                     63 63 63 
0.4949 0.0247 0.3514                     10 93 115 
-0.1315 0.4852 0.0382                     4 140 166 
0.4949 0.0554 -0.0416                     12 121 145 
0.5011 0.0001 0.0751                     6 101 127 
0.2554 -0.3254 0.0321                     118 118 118 
0.4765 0.1475 0.3514                     12 137 161 
0.5256 0.0369 0.1733                     5 111 136 
0.4949 0.0185 0.0198                     7 92 104 
0.3721 0.1966 -0.0723                     1 112 143 
-0.0701 0.2335 0.2839                     1 109 142 
-0.1315 0.4852 0.2716                     7 141 167 
-0.0946 0.3071 0.2102                     0 112 141 
-0.1131 0.3747 0.0996                     0 75 104 
0.5318 0.1106 0.1119                     1 113 139 
0.5256 0.0554 0.0136                     6 106 137 
-0.0701 0.2457 0.1672                     2 113 144 
0.5379 0.0922 0.2593                     4 109 134 
0.5379 0.0922 0.0873                     4 112 138 
-0.1008 0.3440 0.0443                     2 106 134 
-0.0824 0.2519 0.0259                     4 113 144 
-0.1192 0.4423 0.2347                     6 106 133 
0.5133 0.1168 0.3944                     9 125 152 
0.1264 -0.1289 0.1672                     152 153 154 
0.5379 0.0922 0.2470                     3 110 137 
0.5011 0.1413 0.1303                     6 128 156 
0.2124 0.2027 -0.0601                     4 99 132 
-0.1192 0.4545 0.1242                     6 108 138 
0.5072 0.1413 0.1795                     5 131 157 
0.5011 0.0431 -0.0293                     6 118 144 
0.5011 0.0062 0.3391                     4 81 105 
0.5256 0.0492 0.0812                     6 117 144 
-0.1069 0.3256 0.3330                     5 114 144 
0.5011 -0.0122 0.0075                     10 105 131 
0.4642 0.1598 0.1365                     6 135 160 
0.3537 0.2335 0.5111                     9 123 153 
-0.0885 0.2212 0.3760                     1 116 149 
0.4888 0.0247 0.4067                     8 58 73 
0.4704 0.0431 0.4374                     0 64 83 
0.4949 0.0001 -0.0109                     12 107 132 
0.4335 0.1168 0.4865                     4 96 125 
0.5011 0.0062 0.3391                     4 81 107 
0.5011 0.1352 0.2163                     4 128 154 
0.5379 0.0676 0.1917                     7 109 135 
-0.1131 0.3624 0.2286                     7 100 129 
0.5011 0.0124 0.2286                     6 56 68 
-0.1192 0.4115 0.1487                     2 93 122 
0.4949 0.1413 0.2654                     6 129 155 
-0.0701 0.2519 0.1979                     0 113 143 
-0.1315 0.4852 0.2286                     8 142 167 
0.4888 0.1475 0.0873                     5 128 155 
0.5256 0.0431 0.2102                     1 105 133 
0.5011 -0.0061 0.1487                     8 102 126 
-0.1131 0.3747 0.3268                     4 100 129 
0.5011 0.0124 0.0628                     15 67 84 
-0.1438 0.4668 -0.0109                     4 124 150 
0.5256 0.0554 0.0075                     6 120 145 
0.5072 0.0861 -0.0355                     8 120 146 
0.5072 0.0676 0.4005                     7 114 143 
0.5195 0.1229 0.0812                     3 124 150 
0.1203 -0.1964 0.1365                     133 133 133 
-0.1192 0.4607 0.2286                     6 107 137 
0.4765 0.1536 0.2286                     10 134 160 
0.4028 0.1659 0.1487                     8 132 158 
0.5318 0.0492 0.1795                     6 109 135 
0.4888 0.1168 0.4374                     8 121 148 
0.4826 0.0308 -0.0478                     5 97 117 
0.5379 0.0738 0.2040                     6 115 138 
0.5379 0.0861 0.2102                     5 111 139 
0.1510 0.1659 0.4312                     0 108 143 
0.4826 0.1475 0.2224                     7 131 157 
0.5195 0.1229 0.0751                     10 130 156 
-0.0946 0.2826 0.0014                     9 119 148 
0.5195 0.0431 0.3514                     5 113 136 
0.4642 0.1536 0.2839                     7 133 159 
-0.0639 0.2150 0.2531                     5 106 139 
0.4888 -0.0061 -0.0232                     8 103 130 
-0.1069 0.3440 0.1365                     6 110 136 
0.1264 0.1966 0.4435                     0 115 150 
0.5011 0.0124 0.2839                     2 73 84 
-0.1253 0.4791 0.2347                     10 125 152 
0.4765 0.1475 -0.0293                     9 133 157 
0.5256 0.0983 0.3637                     6 111 134 
0.2124 -0.3131 0.0198                     140 140 140 
0.4888 0.1168 0.4374                     8 121 148 
0.5133 0.0247 0.1180                     5 105 129 
0.5011 0.0185 0.3084                     14 54 70 
-0.1192 0.3931 0.3575                     5 113 141 
0.0282 -0.3008 0.0566                     158 158 158 
0.1203 -0.1105 0.1487                     162 162 163 
0.4949 -0.0122 0.0198                     6 96 123 
0.4949 0.0001 0.0014                     10 103 130 
-0.1008 0.3379 0.0751                     2 108 136 
-0.0639 0.1659 0.3575                     4 101 137 
0.4888 -0.0061 -0.0293                     12 106 132 
0.2923 0.1720 0.4497                     3 106 141 
0.2800 -0.3315 0.2961                     112 112 112 
-0.1131 0.3993 0.0198                     3 104 132 
0.5318 0.0983 0.1917                     1 109 136 
0.5195 0.1229 0.2777                     0 123 149 
0.3598 0.2027 0.4865                     0 117 146 
-0.1315 0.4238 -0.0171                     2 119 147 
0.5318 0.0492 0.1856                     9 115 139 
0.5133 0.1291 0.2839                     0 126 152 
0.5256 0.0369 0.1795                     6 112 137 
-0.1069 0.3440 0.0996                     0 106 134 
-0.0762 0.2396 0.0566                     9 119 149 
-0.1131 0.3624 0.0505                     3 86 110 
-0.1253 0.4730 0.2224                     5 120 146 
0.1387 0.2212 0.4558                     0 122 153 
0.2493 -0.3193 0.0198                     72 72 72 
0.4888 0.0062 -0.0293                     2 101 125 
0.1694 -0.2824 0.1979                     113 113 113 
0.4581 0.0738 0.4619                     1 72 97 
0.1879 -0.3131 0.2102                     164 164 164 
0.5379 0.0861 0.1242                     0 107 136 
-0.1253 0.4791 0.1119                     6 131 156 
0.5379 0.0738 0.1180                     9 116 139 
0.4826 0.0247 -0.0478                     4 92 116 
-0.1376 0.4115 0.3883                     4 123 148 
0.5379 0.0738 0.1180                     8 114 138 
0.5195 0.1229 0.2286                     5 123 149 
-0.1192 0.4238 0.1242                     1 96 123 
0.5318 0.0738 0.3084                     7 110 134 
0.5011 -0.0122 0.3023                     9 89 112 
0.5195 0.0308 0.1426                     5 104 130 
-0.1069 0.3501 0.0873                     0 100 129 
0.5195 0.1229 0.1856                     6 126 151 
0.5318 0.0861 0.0259                     5 108 138 
-0.0516 0.1843 0.1917                     1 108 139 
0.0098 -0.3008 0.0689                     124 124 124 
-0.1131 0.4054 0.0321                     5 102 132 
0.2124 -0.3070 0.0443                     164 164 164 
-0.0824 0.1720 -0.0293                     6 106 143 
0.4949 0.1413 0.1242                     9 134 160 
-0.0516 0.1843 0.1549                     0 106 139 
0.5011 0.0185 0.0505                     9 45 58 
0.4335 0.1045 -0.0846                     11 115 136 
-0.0516 0.1720 0.0566                     1 108 140 
0.4335 0.1168 -0.0723                     2 114 139 
0.5195 0.0369 0.0935                     9 115 140 
0.5318 0.0861 0.0321                     9 117 144 
0.5011 0.0738 0.4190                     4 111 136 
0.5318 0.1045 0.1058                     6 117 143 
0.3782 0.1905 0.4865                     5 120 145 
0.5379 0.0676 0.1365                     3 109 134 
-0.1131 0.4177 0.0382                     7 107 138 
-0.0639 0.1966 0.0321                     4 109 140 
-0.1131 0.3931 0.1180                     8 92 119 
-0.0455 0.1720 0.1549                     8 110 140 
-0.0701 0.1843 0.3514                     1 105 137 
0.2308 0.1659 -0.0539                     0 88 119 
-0.0762 0.1782 0.3760                     2 101 136 
0.4028 0.1536 -0.0171                     7 129 156 
-0.0885 0.2949 0.0443                     0 109 139 
0.4888 -0.0122 0.0075                     10 100 128 
0.5379 0.0799 0.2224                     3 112 139 
-0.1192 0.4361 0.1610                     8 104 130 
0.5195 0.1229 0.1426                     1 118 143 
0.5318 0.0554 0.2286                     7 114 137 
0.5195 0.1045 -0.0048                     0 110 137 
0.5256 0.0431 0.2654                     0 111 134 
0.5011 0.1106 0.4251                     2 117 142 
0.5133 0.1291 0.3453                     7 129 154 
0.2616 -0.3315 0.3330                     168 168 168 
0.4765 0.1475 -0.0171                     8 132 157 
-0.1192 0.3010 0.4067                     5 123 150 
-0.1192 0.4054 0.1795                     3 94 122 
0.0282 0.1720 0.4251                     0 106 140 
-0.1253 0.3808 0.3698                     7 117 144 
0.5256 0.1168 0.2593                     6 121 147 
0.5256 0.0492 0.3023                     8 112 135 
0.4151 0.1475 0.5111                     2 94 116 
-0.1008 0.3440 0.0443                     3 106 132 
-0.0762 0.2519 0.2040                     1 114 145 
0.5195 0.0431 0.3514                     7 115 138 
0.4335 0.1168 0.4804                     7 100 129 
-0.0885 0.2887 0.1979                     5 110 141 
0.5011 0.0124 0.3084                     3 80 99 
0.5318 0.0615 0.2470                     3 110 135 
0.2370 -0.3131 0.0321                     64 64 64 
-0.0025 -0.3377 0.0321                     152 152 152 
0.2186 -0.3070 0.0505                     71 71 71 
-0.1069 0.2887 -0.0232                     8 123 154 
0.3782 0.1782 -0.0723                     1 106 137 
0.2616 -0.3254 0.0321                     134 134 134 
-0.0885 0.2335 0.3760                     1 119 150 
0.3537 0.2335 0.5295                     8 122 147 
0.5318 0.0983 0.0873                     1 113 139 
0.4519 0.0799 -0.0662                     0 103 129 
0.5011 0.0124 0.2961                     0 83 99 
0.1264 -0.2578 0.1426                     162 162 162 
0.5318 0.0492 0.1610                     7 112 137 
0.0896 0.1966 0.4374                     0 115 148 
0.1387 0.2150 0.4497                     0 120 152 
0.4826 0.1352 -0.0416                     4 133 160 
-0.1192 0.4668 0.2286                     8 118 144 
-0.1131 0.4054 0.2531                     2 98 125 
0.4949 0.0799 -0.0478                     4 115 142 
0.5195 0.1106 -0.0171                     2 115 141 
-0.1008 0.3317 0.1549                     2 109 138 
0.1264 -0.1412 0.1487                     152 153 154 
0.2247 0.1659 -0.0539                     2 88 119 
0.2001 -0.3008 0.0812                     131 131 131 
0.4888 0.1475 0.2163                     7 130 157 
0.5133 0.0369 0.0812                     3 111 138 
0.5318 0.0676 0.2777                     1 106 132 
0.5195 0.0492 0.3514                     4 113 136 
-0.0762 0.2457 0.0751                     0 110 141 
-0.0762 0.2457 0.3084                     0 110 142 
-0.1008 0.3010 0.3391                     0 108 138 
0.3782 0.1536 -0.0293                     5 122 150 
0.5072 0.0185 0.1917                     2 97 123 
-0.1192 0.3440 -0.0109                     6 116 143 
0.5072 0.0861 -0.0293                     6 120 145 
0.5195 0.1291 0.2409                     7 124 151 
-0.1253 0.4115 0.3698                     1 117 144 
0.5256 0.0554 0.3330                     0 106 131 
0.5011 0.0062 0.1487                     0 90 107 
0.5379 0.0676 0.1917                     4 107 134 
0.4519 0.0799 -0.0723                     1 111 134 
-0.1192 0.4115 0.1426                     4 94 123 
0.5256 0.0431 0.2593                     1 109 132 
0.3291 0.1659 0.4558                     2 105 140 
0.5256 0.0554 0.3330                     10 113 138 
0.4949 0.0001 0.3760                     2 90 109 
-0.0701 0.2212 0.2839                     1 105 140 
-0.1376 0.4914 0.0259                     8 140 169 
0.4151 0.1659 0.0566                     7 132 157 
0.0712 0.2027 0.4374                     0 115 148 
-0.1192 0.3747 0.3575                     3 107 135 
0.4949 0.0124 -0.0171                     3 88 112 
0.5011 0.1413 0.1549                     9 133 156 
0.5379 0.0861 0.0689                     5 113 140 
0.1694 -0.2885 0.2224                     117 117 117 
0.5318 0.0554 0.1058                     0 107 136 
0.5195 0.1291 0.1242                     0 123 149 
-0.0516 -0.3438 0.3637                     180 180 180 
0.5256 0.0431 0.0321                     0 114 140 
0.2308 0.1782 0.4435                     0 111 145 
0.5256 0.1168 0.2163                     4 114 142 
0.5011 -0.0061 0.1180                     11 104 129 
0.4581 0.1536 0.3207                     8 134 160 
0.5256 0.0554 0.3391                     7 111 136 
-0.0701 0.2335 0.3023                     4 112 144 
0.5011 0.0124 0.0382                     13 74 92 
0.1387 0.1659 -0.0478                     4 90 124 
-0.1192 0.4607 0.0443                     4 112 140 
0.5379 0.0861 0.1549                     5 108 138 
-0.0148 -0.3254 0.0136                     172 172 172 
0.3660 0.2212 -0.0846                     4 121 148 
0.1264 -0.1350 0.1549                     119 119 124 
0.5011 0.0062 0.1672                     8 92 117 
0.4396 0.1598 0.2102                     9 136 161 
0.5195 0.1229 0.2531                     4 125 149 
-0.1315 0.4852 0.0628                     6 135 161 
0.1879 -0.2947 0.0935                     142 142 142 
0.5011 0.0185 0.2900                     0 49 59 
0.5256 0.0492 0.0321                     6 114 141 
0.2370 -0.3193 0.0259                     143 143 143 
0.4949 0.1106 0.4374                     3 116 144 
0.5195 0.1291 0.2224                     7 128 155 
0.5256 0.0615 0.3330                     8 111 136 
0.2063 -0.3008 0.2286                     108 108 108 
0.5011 -0.0122 0.2286                     15 103 127 
0.3414 0.1843 -0.0662                     0 105 135 
-0.1069 0.3563 0.2286                     2 103 132 
0.5318 0.0615 0.2593                     1 108 134 
0.5011 0.0062 0.1856                     10 88 119 
0.5256 0.0676 0.0075                     5 115 142 
0.2431 -0.3193 0.0382                     63 63 63 
0.1510 -0.2824 0.2040                     135 135 135 
-0.1069 0.3501 0.2593                     1 110 138 
0.0835 0.2396 0.4619                     0 129 160 
-0.0701 0.2396 0.1856                     5 111 143 
0.5256 0.0922 0.3207                     0 107 132 
0.5011 0.0001 0.2347                     5 90 117 
-0.0946 0.3071 0.2654                     5 113 142 
0.5011 0.1352 0.2716                     12 133 158 
0.4949 0.0247 -0.0048                     9 94 116 
-0.0701 0.2457 0.1917                     4 116 145 
-0.1069 0.3563 0.3207                     5 110 140 
0.5195 0.1168 0.0014                     3 119 144 
0.5318 0.0983 0.2102                     3 110 138 
0.5195 0.1229 0.2470                     2 117 142 
0.5133 0.1168 -0.0171                     8 121 147 
-0.1253 0.4668 0.0259                     1 113 139 
-0.1192 0.4361 0.1487                     3 100 127 
-0.1069 0.3563 0.0689                     3 100 126 
0.1633 -0.3131 0.1917                     164 164 164 
-0.0578 0.1905 0.2593                     0 106 138 
-0.0824 0.2273 0.0014                     0 109 143 
0.2493 0.2027 0.4619                     3 119 150 
0.5011 0.1229 0.4128                     4 123 149 
0.5195 0.0861 -0.0109                     8 119 145 
0.5318 0.0554 0.0751                     4 112 140 
0.5011 0.0124 0.1856                     3 82 93 
0.5011 0.0001 0.2347                     5 90 117 
0.5379 0.0615 0.1487                     8 106 134 
0.4949 0.0001 0.3575                     3 88 107 
0.5011 0.0247 0.0014                     1 107 135 
-0.0762 0.2519 0.1303                     2 114 145 
0.1817 0.2396 -0.0723                     3 130 157 
0.4765 -0.0122 -0.0355                     4 106 131 
-0.1131 0.3870 0.0689                     1 84 112 
0.3230 0.2273 0.4927                     5 126 154 
0.4519 0.0799 -0.0662                     1 108 137 
0.3721 0.1966 -0.0723                     1 113 143 
0.4274 0.1229 -0.0723                     2 113 141 
0.4765 0.1413 -0.0355                     8 136 160 
0.1940 0.1782 0.4435                     0 112 147 
0.1449 0.1843 -0.0478                     2 96 131 
0.5318 0.0676 0.2900                     7 111 135 
0.5133 0.0738 -0.0232                     3 115 142 
0.1694 -0.3131 0.1119                     164 164 164 
0.5011 -0.0122 0.0996                     8 101 126 
0.5318 0.0861 0.2654                     8 110 136 
0.5011 0.1352 0.3023                     7 125 153 
-0.1192 0.4423 0.2961                     5 109 138 
0.4212 0.1475 0.4988                     0 104 131 
-0.1192 0.4238 0.2286                     3 99 130 
-0.0762 0.2027 0.3575                     2 109 141 
0.4519 0.0738 0.4927                     5 88 115 
-0.0639 0.2273 0.1672                     0 109 140 
0.1940 0.1905 -0.0539                     3 97 131 
0.5072 0.0247 0.2900                     6 108 134 
0.5133 0.1229 0.3698                     4 120 148 
0.4826 0.0247 -0.0355                     2 77 98 
0.5256 0.0369 0.1610                     5 104 133 
0.0528 0.2273 0.4558                     0 122 153 
0.4826 0.0308 -0.0416                     5 84 104 
-0.1253 0.4668 0.0505                     9 116 143 
0.1326 0.1966 -0.0539                     4 102 137 
0.3168 0.1966 -0.0662                     4 102 137 
0.2738 -0.3315 0.0136                     57 57 57 
0.4949 0.0247 -0.0232                     5 106 133 
0.4949 0.1475 0.1549                     9 134 158 
-0.1069 0.3808 0.3084                     7 98 127 
-0.1253 0.4484 0.0075                     4 118 146 
0.5318 0.0554 0.1119                     6 111 139 
0.3721 0.1720 -0.0662                     1 102 134 
0.5318 0.0861 0.0321                     6 108 138 
0.5256 0.0861 0.3023                     7 110 136 
0.4888 0.0062 0.4005                     2 86 107 
0.5318 0.0983 0.0505                     3 113 139 
-0.1315 0.4791 0.0198                     5 120 149 
0.3905 0.1598 0.3207                     9 130 156 
0.1940 0.1843 0.4435                     1 114 148 
-0.1192 0.4545 0.1733                     8 110 135 
-0.1253 0.4791 0.3084                     0 126 152 
0.5195 0.0492 0.0075                     4 117 143 
-0.1008 0.3256 0.2716                     0 109 138 
0.5318 0.0983 0.1795                     5 112 138 
0.0528 0.2457 0.4681                     1 132 163 
-0.0824 0.2826 0.1917                     3 113 143 
0.5256 0.0369 0.1549                     2 104 133 
0.5011 0.0062 0.0505                     5 102 128 
0.5256 0.0492 0.0443                     2 111 140 
0.5379 0.0738 0.2224                     4 105 132 
0.3352 0.1905 -0.0662                     4 107 138 
0.5011 0.0062 0.2224                     6 92 119 
0.1203 -0.1780 0.1426                     160 160 161 
0.5011 0.1413 0.1180                     9 132 159 
-0.0824 0.2642 0.0812                     1 113 144 
-0.1192 0.4423 0.0628                     4 107 133 
-0.0639 0.2089 0.0321                     2 107 139 
0.2677 0.2335 -0.0785                     7 127 155 
-0.1131 0.4054 0.2286                     1 96 124 
0.5379 0.0861 0.1426                     4 109 138 
0.1326 0.2457 0.4742                     4 133 161 
0.3844 0.1905 0.4927                     3 100 130 
0.3660 0.1720 0.4681                     4 108 140 
0.5195 0.0369 0.3207                     8 111 141 
0.5011 -0.0061 0.2716                     8 92 118 
-0.1192 0.3747 -0.0048                     5 106 133 
0.2493 -0.3193 0.0321                     60 60 60 
0.5072 0.0247 0.2531                     4 103 129 
0.4888 -0.0122 -0.0109                     5 96 124 
-0.0824 0.2642 0.0689                     0 113 144 
0.4642 0.0676 -0.0662                     3 107 137 
0.5379 0.0738 0.1672                     6 109 135 
0.4949 -0.0122 0.2900                     6 91 114 
-0.0762 0.2273 0.0136                     6 116 147 
-0.1376 0.4668 0.3698                     6 126 153 
0.0098 -0.3131 0.2777                     166 166 166 
-0.0578 0.1843 0.3146                     0 104 137 
0.1940 -0.3008 0.2409                     71 71 71 
0.1633 -0.2885 0.1856                     125 125 125 
-0.0578 0.1843 0.0321                     1 107 139 
-0.1131 0.3870 0.3146                     0 96 125 
0.4949 0.0185 0.3760                     14 60 81 
0.5072 0.0185 0.1672                     1 99 123 
-0.1069 0.3501 0.0812                     4 102 130 
0.4949 0.0001 -0.0048                     4 104 128 
-0.0946 0.3010 0.0505                     0 109 140 
0.5379 0.0922 0.2593                     3 109 135 
0.5379 0.0676 0.1917                     3 106 133 
0.5318 0.0492 0.1795                     6 109 135 
-0.1131 0.2396 0.4190                     0 103 131 
-0.1192 0.4730 0.1365                     6 122 149 
-0.0762 0.2273 0.3268                     0 106 138 
0.4765 -0.0245 0.0321                     2 96 123 
0.4826 0.1536 0.2040                     9 133 159 
0.4949 -0.0061 -0.0171                     4 108 131 
-0.0824 0.2764 0.3023                     1 115 145 
0.5256 0.1229 0.2163                     9 125 152 
0.5011 0.0124 0.0628                     7 37 48 
0.4765 0.1536 0.2531                     8 133 159 
0.2431 0.2027 0.4619                     1 120 151 
-0.0885 0.2273 -0.0109                     0 117 149 
0.0343 -0.3070 0.0628                     165 165 165 
0.5072 0.1229 0.3883                     5 122 149 
0.5195 0.1168 0.0751                     5 122 149 
0.4765 0.1536 0.0873                     9 135 160 
0.5072 0.0369 -0.0171                     6 115 140 
-0.0087 -0.3315 0.0198                     164 164 164 
0.5072 0.1291 0.0014                     7 128 155 
0.2554 0.2335 0.4865                     4 130 158 
0.5318 0.0492 0.2040                     7 114 137 
0.5133 0.0369 0.0014                     6 119 144 
-0.0455 0.1843 0.1487                     0 104 137 
-0.1131 0.3808 0.2102                     4 84 114 
-0.1315 0.4607 0.3330                     6 117 144 
0.0405 -0.2824 0.1119                     128 128 128 
0.3230 0.2150 -0.0723                     7 114 144 
0.4581 0.1598 0.1058                     8 133 159 
0.5318 0.1045 0.1119                     4 113 140 
-0.0885 0.2703 0.3207                     5 112 146 
0.5318 0.0492 0.1672                     7 109 135 
0.2493 -0.3315 -0.0048                     155 155 155 
-0.1376 0.4914 0.0505                     11 143 168 
0.0528 0.1843 0.4312                     0 108 143 
-0.0025 -0.3377 0.2777                     134 134 134 
-0.0762 -0.3438 -0.0109                     148 148 148 
0.5011 0.0062 0.1242                     0 89 106 
0.4704 0.1598 0.1979                     6 136 160 
0.5011 -0.0122 0.3391                     8 87 112 
0.4888 0.1229 -0.0478                     5 127 152 
-0.0885 0.2949 0.3084                     0 111 139 
0.5256 0.0492 0.0812                     6 117 144 
-0.1315 0.4484 -0.0048                     5 120 147 
