ply
format ascii 1.0
comment VCGLIB generated
element vertex 899
property float x
property float y
property float z
property uchar red
property uchar green
property uchar blue
element face 0
property list uchar int vertex_indices
end_header
0.4097 0.0615 0.2286                     5 110 135 
-0.1675 0.1475 0.0443                     3 107 139 
-0.1921 0.2273 0.0627                     2 114 145 
-0.2228 0.2887 -0.1338                     9 117 145 
0.1580 0.1966 0.3514                     2 127 156 
0.3852 -0.0245 0.1364                     3 44 55 
0.3790 -0.0184 0.2040                     7 57 72 
0.4036 0.0001 0.1733                     0 107 129 
0.3729 -0.0306 -0.1645                     3 101 125 
0.0965 -0.3438 -0.0724                     63 63 63 
-0.2412 0.4177 -0.1276                     5 117 145 
-0.2351 0.3501 0.0075                     6 90 117 
0.4159 0.0615 -0.0171                     1 103 134 
-0.2289 0.3563 -0.0662                     0 91 118 
-0.2351 0.4115 -0.0294                     10 111 140 
0.4220 0.0308 0.0873                     4 107 133 
0.3729 -0.0122 -0.1706                     3 82 107 
-0.1798 0.1720 0.0750                     5 112 143 
0.4097 0.0492 0.2224                     3 107 131 
0.1027 -0.3438 -0.0724                     71 71 71 
-0.2351 0.4238 0.1303                     5 112 140 
0.4097 0.0062 0.0750                     5 108 136 
-0.2351 0.3317 0.0136                     0 81 107 
-0.1798 0.1475 0.2040                     4 105 138 
0.4159 0.0124 -0.0110                     2 108 134 
0.3852 -0.0491 0.1794                     8 85 109 
-0.1982 0.2396 -0.0232                     0 113 144 
0.4097 0.0124 -0.0539                     2 116 142 
-0.2535 0.3931 0.2531                     9 123 151 
-0.2351 0.4115 0.1426                     1 106 136 
0.0413 -0.3193 -0.0171                     65 65 65 
0.3852 -0.0306 0.1303                     9 81 101 
0.4097 0.0185 0.1978                     8 112 137 
0.3913 0.0860 -0.1522                     5 122 149 
-0.1860 0.1659 -0.1215                     0 106 140 
0.3053 0.1229 0.1057                     6 134 159 
0.3360 0.0492 -0.2075                     3 112 138 
0.4159 0.0308 -0.0969                     6 109 135 
-0.1737 0.1597 -0.0724                     2 109 141 
0.3852 0.0860 0.2777                     7 128 154 
0.3852 -0.0429 0.1733                     9 87 111 
0.4159 0.0431 -0.1215                     5 111 139 
0.1334 0.1229 0.3084                     0 106 141 
-0.1123 -0.3623 -0.1031                     167 167 167 
-0.1675 0.1597 0.0013                     4 109 141 
-0.2412 0.4115 0.2101                     3 117 143 
0.3852 0.0860 0.2715                     12 130 154 
0.4036 0.0676 0.2408                     2 109 137 
-0.1860 0.1966 0.0873                     0 108 139 
0.0720 -0.3316 0.0996                     96 96 96 
-0.1737 0.1536 -0.0969                     4 109 140 
0.3852 -0.0368 0.1671                     8 91 118 
-0.0816 0.1536 -0.1829                     0 100 135 
-0.2351 0.4300 -0.0294                     7 115 141 
0.3790 -0.0245 -0.1645                     6 88 118 
0.4097 0.0860 0.0812                     6 121 149 
-0.0324 -0.3316 -0.0294                     161 161 161 
-0.2351 0.3747 0.0566                     0 94 121 
-0.1860 0.2150 0.0320                     7 118 148 
0.0965 -0.3438 0.1119                     57 57 57 
-0.2228 0.3440 0.1610                     4 93 121 
-0.2167 0.3071 -0.0969                     0 108 136 
-0.2596 0.3685 -0.1645                     6 120 145 
0.3852 -0.0429 0.1794                     8 87 110 
0.4220 0.0553 -0.0232                     7 110 139 
-0.0263 0.2027 0.3330                     1 130 161 
0.2194 0.1782 0.3452                     1 117 147 
-0.2351 0.4177 0.0382                     5 107 135 
-0.1921 0.1475 -0.1461                     3 105 137 
0.3852 -0.0184 -0.0846                     9 45 58 
0.4097 0.0185 0.1426                     5 111 136 
-0.2351 0.3071 -0.1461                     6 116 143 
0.4097 0.0492 0.2286                     3 107 131 
-0.1614 0.1413 -0.1768                     0 100 136 
0.4036 0.0492 -0.1522                     7 123 147 
0.3238 0.0738 -0.2136                     11 119 140 
-0.2351 0.2887 0.2470                     4 122 149 
-0.2044 0.2580 -0.0724                     0 111 142 
0.3729 0.1106 -0.0232                     12 138 163 
0.2071 0.1413 0.3268                     2 111 143 
-0.2351 0.4115 -0.1092                     2 111 138 
-0.2412 0.3194 -0.1522                     2 111 138 
-0.2289 0.3747 -0.0539                     5 98 128 
0.4220 0.0369 0.0627                     3 112 137 
0.4159 0.0676 -0.0785                     3 112 139 
0.4220 0.0246 -0.0171                     5 111 136 
-0.0631 0.2089 -0.2013                     0 133 162 
0.3852 -0.0429 -0.0171                     10 101 127 
0.3913 0.0922 -0.1583                     8 124 151 
0.4097 0.0431 0.2040                     3 107 131 
0.3360 0.1229 0.0934                     10 136 161 
0.2931 0.1229 -0.2136                     7 113 141 
-0.2535 0.4545 -0.1215                     6 145 170 
0.1334 -0.3561 -0.1031                     61 61 61 
0.3852 -0.0429 -0.0417                     12 106 130 
-0.1614 0.1352 -0.0232                     4 106 140 
0.0106 -0.1903 0.0136                     130 131 134 
0.0843 -0.3377 0.0873                     119 119 119 
0.3852 0.1045 0.0198                     8 131 155 
0.2255 0.2027 -0.2259                     2 134 156 
0.1211 0.1843 -0.2013                     7 116 147 
0.3729 -0.0552 0.0013                     6 98 124 
0.3668 -0.0184 -0.1952                     13 115 140 
0.3360 0.1168 -0.0969                     8 134 160 
0.3975 -0.0061 0.1733                     10 100 130 
0.4159 0.0676 0.0443                     6 113 140 
-0.2289 0.3133 0.1978                     5 113 141 
0.3668 0.1106 -0.0294                     10 136 161 
0.1702 0.1229 0.3145                     2 104 139 
0.4159 0.0615 0.0013                     2 108 137 
0.0290 0.2027 0.3391                     3 131 159 
-0.2105 0.2826 0.1610                     6 112 141 
0.4036 0.0922 0.0566                     1 120 146 
0.3176 0.0799 0.3514                     4 96 125 
0.3422 0.1168 0.1487                     10 135 160 
0.3668 -0.0491 0.2593                     0 89 113 
0.0720 -0.3500 0.0750                     166 166 166 
-0.2351 0.4300 0.0136                     7 116 143 
0.3975 0.0553 -0.1645                     9 117 144 
-0.2412 0.4361 -0.0785                     4 115 142 
0.1457 0.1229 0.3084                     0 104 141 
-0.1921 0.1597 0.2224                     6 111 144 
0.4220 0.0431 0.0689                     2 106 136 
0.4036 0.0738 0.2224                     11 122 148 
0.4220 0.0246 0.0443                     8 111 137 
0.2378 0.1966 -0.2198                     6 127 154 
0.3176 0.0860 0.3575                     12 104 132 
-0.2228 0.1904 0.2777                     5 123 151 
0.0965 -0.3438 0.1057                     98 98 98 
-0.2474 0.4484 -0.0110                     4 136 162 
0.2439 0.1659 0.3452                     5 115 149 
-0.2044 0.2641 0.0198                     5 120 149 
0.4159 0.0246 -0.0355                     5 114 140 
0.4097 0.0738 -0.0846                     8 122 149 
-0.2535 0.3501 -0.1583                     5 116 142 
-0.1860 0.1966 -0.0662                     2 112 143 
-0.1982 0.1720 0.2470                     0 112 146 
-0.1798 0.1904 0.0505                     6 114 144 
0.4159 0.0738 0.1303                     5 115 142 
0.4036 0.0922 0.0566                     7 127 152 
0.0290 0.1843 -0.1952                     1 118 149 
-0.2167 0.2519 -0.1522                     1 115 148 
-0.1123 0.1659 -0.1829                     0 105 139 
0.3975 0.0738 -0.1522                     4 117 143 
0.3729 0.0983 -0.1768                     5 136 162 
0.3790 -0.0306 0.2224                     9 82 106 
0.4159 0.0676 0.0075                     1 110 137 
0.4036 0.0124 0.2347                     0 108 136 
-0.2228 0.3133 0.1057                     5 111 138 
-0.0324 0.1290 -0.1768                     0 89 126 
0.4159 0.0369 -0.0724                     9 111 137 
0.3852 -0.0306 0.0320                     7 90 115 
0.4097 0.0185 -0.0724                     3 112 139 
-0.2167 -0.4175 -0.2013                     175 175 175 
-0.2474 0.3624 0.2531                     4 121 148 
0.3606 0.1168 0.0934                     10 134 160 
0.0781 -0.3377 -0.0785                     160 160 160 
0.3852 0.0860 0.2715                     12 130 154 
-0.1860 0.1843 0.1610                     5 109 143 
-0.2228 0.2089 -0.1645                     2 121 150 
-0.1921 0.2150 0.1671                     4 115 145 
-0.2044 0.2089 0.2347                     4 119 151 
-0.2289 0.3747 0.1242                     2 101 131 
-0.1982 0.2457 -0.0846                     0 114 144 
-0.2412 0.4054 0.2224                     8 122 147 
0.1211 -0.3561 -0.1154                     169 169 169 
0.1457 0.1659 -0.1952                     1 103 135 
0.2255 0.2027 0.3944                     9 131 156 
0.3176 0.0799 -0.2013                     4 107 136 
-0.2105 0.2396 -0.1276                     3 117 146 
-0.2289 0.3563 0.0689                     9 93 122 
0.3852 -0.0429 0.1180                     6 97 122 
0.4097 0.0799 0.1057                     5 117 142 
0.4220 0.0553 -0.0417                     0 109 135 
-0.1921 0.2212 0.1057                     4 116 146 
0.0228 -0.3131 -0.0048                     128 128 128 
-0.2412 0.3992 0.1978                     7 115 142 
0.3852 0.1045 0.0873                     7 132 158 
0.0536 -0.3254 0.0689                     56 56 56 
0.3729 0.1045 -0.1522                     10 130 156 
-0.1982 -0.3930 -0.1768                     142 142 142 
0.3790 0.0185 0.2900                     1 98 121 
-0.2351 0.4300 -0.0171                     2 107 136 
-0.2044 0.2150 0.2163                     3 120 149 
-0.1860 0.1475 0.2224                     0 104 136 
-0.1921 0.1597 -0.1338                     1 107 143 
0.1334 -0.3561 0.1671                     165 165 165 
-0.2289 0.3747 0.1364                     4 105 135 
-0.2167 0.2887 0.1364                     3 112 141 
0.3852 -0.0306 0.0136                     0 90 107 
-0.2228 0.2826 0.2040                     5 117 147 
-0.2105 0.2519 -0.1215                     4 118 147 
0.1457 0.1413 0.3145                     1 112 145 
-0.1921 0.2027 -0.1092                     0 111 141 
0.3852 -0.0429 -0.0417                     6 100 126 
0.3668 -0.0061 -0.1768                     5 72 91 
0.3975 0.0676 -0.1645                     4 117 142 
0.3668 -0.0184 0.3145                     8 85 105 
0.2562 0.1782 0.3821                     5 115 138 
-0.2167 0.2887 0.0996                     4 114 142 
0.4097 0.0185 -0.1215                     5 109 138 
0.4036 0.0553 0.2470                     4 115 137 
-0.2351 0.3256 0.2347                     0 109 137 
0.4097 0.0738 0.1242                     2 118 143 
0.1518 0.1229 0.3084                     0 104 141 
-0.2351 0.3931 0.0443                     5 99 127 
0.3729 0.1045 0.1610                     10 130 156 
-0.2289 0.3624 -0.0232                     4 92 121 
0.2808 0.1352 0.3514                     0 95 128 
0.1948 0.1904 0.3514                     3 122 152 
-0.2474 0.3378 0.2531                     5 116 143 
0.1088 0.1475 0.3084                     0 113 147 
0.4159 0.0676 0.1426                     5 108 134 
0.1150 -0.3500 -0.0908                     63 63 63 
0.3668 -0.0122 -0.1768                     0 86 111 
0.0597 0.1904 -0.1952                     1 118 149 
0.1272 -0.3623 -0.0908                     167 167 167 
-0.2412 0.4361 -0.0846                     4 117 143 
0.0228 0.1475 0.3022                     0 116 149 
0.0597 -0.3377 -0.0785                     136 136 136 
-0.0079 -0.1596 0.0443                     166 166 167 
-0.0079 -0.1842 0.0443                     169 169 169 
-0.2351 0.3992 -0.0662                     5 108 135 
-0.1982 0.1904 -0.1338                     0 113 144 
-0.2228 0.2641 0.2470                     0 118 148 
0.4036 0.0553 -0.1583                     4 113 141 
-0.2044 0.2396 -0.1154                     5 113 144 
0.3852 -0.0429 -0.1154                     11 107 132 
0.1518 0.1659 0.3330                     2 118 150 
-0.1737 0.1659 0.0443                     5 109 141 
0.4220 0.0553 0.1242                     2 109 134 
0.4097 0.0676 0.2163                     5 112 137 
0.4159 0.0553 -0.0969                     3 109 138 
0.2439 0.1904 0.3821                     5 124 154 
-0.2228 0.3194 -0.0417                     0 97 124 
0.2685 0.1290 -0.2013                     7 109 139 
0.3545 0.1168 0.1610                     9 134 159 
-0.1798 0.1843 0.0443                     3 110 140 
-0.1982 0.2027 0.2101                     0 117 148 
0.3852 -0.0368 -0.0110                     6 97 123 
-0.2289 0.2519 -0.1645                     2 121 152 
0.4036 0.0062 -0.1215                     9 113 142 
0.4097 0.0492 0.2163                     4 108 132 
-0.2289 0.3624 -0.0294                     0 88 116 
-0.1860 0.2089 -0.0171                     1 113 144 
-0.2289 0.3501 -0.0846                     6 95 122 
0.2501 0.1904 0.3821                     4 118 145 
0.3729 -0.0184 -0.1706                     10 95 123 
-0.2044 0.2641 0.0627                     5 115 144 
-0.2167 0.2150 0.2593                     6 123 152 
0.0167 -0.3193 -0.0294                     134 134 134 
0.3975 0.0860 -0.1338                     9 127 153 
0.0106 -0.2517 0.0259                     121 122 123 
-0.1737 0.1597 0.0873                     0 107 139 
0.3729 -0.0552 -0.0294                     8 102 126 
0.4220 0.0308 0.0259                     4 106 133 
0.1395 0.1413 -0.1890                     1 92 128 
0.3852 -0.0245 0.0136                     5 85 95 
0.3852 -0.0245 0.1303                     4 43 54 
0.0843 0.1475 0.3084                     2 114 147 
-0.2167 0.3071 -0.1031                     5 111 138 
0.4220 0.0369 0.0320                     5 111 136 
0.4159 0.0246 0.0627                     10 109 136 
0.3729 -0.0245 -0.1768                     6 102 126 
0.3852 -0.0245 0.0075                     0 82 92 
0.2685 0.1536 -0.2198                     7 114 143 
0.0904 -0.3438 0.1364                     167 167 167 
0.4097 0.0799 -0.0908                     7 123 149 
0.0106 -0.1903 0.0259                     119 120 122 
0.1027 0.1597 0.3145                     2 118 151 
0.3422 0.0369 0.3268                     2 68 94 
0.3852 -0.0368 -0.0846                     8 101 126 
-0.2167 0.2948 0.1057                     6 114 141 
-0.2228 0.3071 -0.0417                     2 104 133 
0.4097 0.0738 -0.0171                     7 120 144 
-0.2167 0.2580 0.2347                     5 118 148 
0.1334 -0.3561 0.1426                     58 58 58 
0.3852 0.0553 -0.1829                     4 116 143 
0.3913 0.0922 0.1856                     7 129 155 
-0.2167 0.2887 -0.1092                     7 113 144 
-0.2167 0.2948 0.1426                     4 111 139 
0.2808 0.1290 0.3452                     3 102 134 
0.4036 0.0369 -0.1461                     5 116 143 
0.3053 0.1229 0.1794                     8 133 159 
-0.1798 0.1782 0.1180                     5 106 139 
0.1088 -0.3500 0.1549                     166 166 166 
-0.1921 0.1413 -0.1461                     5 105 137 
-0.2228 0.2764 -0.1461                     3 116 145 
0.1395 -0.3807 0.1426                     166 166 166 
-0.2289 0.3685 0.1733                     2 105 135 
0.4036 0.0860 -0.0048                     12 130 154 
-0.2044 0.2396 0.1856                     4 111 146 
-0.2167 0.1843 -0.1645                     5 120 147 
0.3668 0.1168 0.0075                     6 132 158 
0.1088 -0.3623 0.1856                     146 146 146 
0.4159 0.0676 -0.0724                     3 115 141 
-0.2351 0.4054 -0.0846                     5 107 134 
-0.1737 0.1659 -0.0478                     0 107 139 
0.2501 0.1782 -0.2136                     7 119 147 
-0.0877 -0.3561 -0.0724                     148 148 148 
0.4036 0.0922 -0.0048                     9 131 155 
0.4036 0.0860 -0.0478                     2 120 148 
0.4159 0.0246 -0.0601                     7 114 141 
-0.2228 0.3071 0.1057                     2 110 138 
0.3913 -0.0184 0.0566                     7 84 102 
0.0413 0.1904 -0.1952                     0 121 151 
0.4097 0.0738 -0.1031                     3 116 143 
-0.2167 0.2764 -0.0417                     5 114 141 
-0.2228 0.2273 0.2593                     3 120 150 
0.1457 0.1536 0.3207                     2 115 148 
0.3483 0.0308 -0.2013                     3 107 137 
0.3852 -0.0429 0.0873                     8 97 121 
0.3975 0.0492 -0.1645                     1 116 142 
0.0351 0.1966 0.3330                     3 130 158 
0.1088 0.1475 -0.1890                     0 94 124 
-0.2105 0.2764 -0.0048                     3 116 144 
-0.2351 0.4177 0.1549                     4 110 139 
0.1518 -0.3623 -0.1154                     62 62 62 
0.4097 0.0185 0.1180                     6 116 138 
-0.2167 0.2826 -0.0724                     4 110 139 
-0.1982 0.1720 0.2286                     0 110 144 
0.1457 0.1413 -0.1890                     2 92 128 
0.3975 0.0308 -0.1645                     3 111 140 
0.4036 0.0676 -0.1583                     2 114 140 
0.2624 0.1168 -0.2013                     1 104 134 
-0.1737 0.1597 -0.0724                     2 109 141 
0.2009 0.1352 0.3268                     0 107 140 
0.3115 0.1229 -0.0969                     9 134 159 
-0.2105 0.1597 0.2777                     5 121 152 
0.3975 0.0922 0.1917                     8 132 157 
0.3790 -0.0491 0.1487                     5 90 113 
0.1211 -0.3745 0.1303                     160 160 160 
0.0106 0.1597 -0.1890                     3 101 135 
0.3483 0.0308 0.3391                     0 88 110 
0.2624 0.1229 -0.2013                     2 102 133 
-0.1921 0.1904 -0.1154                     0 109 140 
-0.2351 0.3317 0.0136                     0 82 108 
0.3729 0.1045 -0.0969                     8 136 160 
0.3852 0.0922 -0.1645                     7 127 154 
0.1334 0.1229 -0.1890                     0 88 119 
0.1272 -0.3868 0.1487                     157 157 157 
0.3729 0.1106 -0.0232                     12 138 163 
-0.1860 0.2027 -0.0601                     0 111 142 
-0.0631 0.1782 0.3084                     0 119 153 
-0.1675 0.1536 0.0382                     0 107 139 
0.2624 0.1659 0.3575                     1 105 133 
0.4097 0.0369 -0.1338                     0 111 139 
-0.2351 0.4361 -0.0048                     7 124 149 
-0.1860 0.2027 0.0075                     2 114 145 
-0.2105 0.2764 -0.0048                     7 117 145 
-0.2412 0.3440 -0.1461                     4 111 140 
0.0290 -0.3316 0.0136                     160 160 160 
-0.1860 0.1966 0.1364                     5 112 144 
-0.2289 0.2764 -0.1522                     8 120 149 
0.3975 0.0922 0.0750                     8 128 155 
-0.2412 0.4054 -0.1399                     0 115 143 
-0.2351 0.3808 0.0934                     2 99 129 
-0.2289 0.3317 -0.0539                     4 80 107 
0.1764 0.1966 0.3514                     3 125 154 
0.4159 0.0308 -0.0846                     3 106 133 
0.3852 -0.0184 0.1610                     8 77 97 
-0.1921 0.1904 -0.1154                     3 111 141 
0.3668 0.1106 -0.1031                     7 136 160 
-0.1675 0.1352 -0.0846                     7 111 143 
0.4097 0.0124 -0.0662                     1 115 141 
0.4097 0.0062 0.0750                     5 109 136 
0.1395 -0.3623 0.1733                     161 161 161 
0.3299 0.0553 -0.2136                     11 111 136 
-0.1123 -0.3500 0.1487                     168 168 168 
-0.2412 0.4484 -0.0969                     0 130 157 
-0.1737 0.1659 0.1057                     2 107 140 
-0.1860 0.2150 0.0075                     5 116 146 
-0.2412 0.3992 -0.1215                     3 115 144 
0.4220 0.0369 -0.0601                     6 108 135 
0.3975 0.0983 0.0320                     2 123 149 
0.0843 0.1659 0.3145                     0 117 150 
-0.2412 0.4361 0.1487                     7 118 144 
0.2869 0.1229 0.3452                     0 102 133 
0.4036 0.0062 0.1917                     3 111 136 
-0.2596 0.3931 -0.1583                     5 123 149 
0.4097 0.0553 -0.1215                     11 119 145 
-0.2105 0.2764 0.0320                     6 117 147 
-0.2351 0.4054 0.0689                     7 108 133 
0.3545 0.1106 -0.1706                     9 135 158 
-0.2596 0.3624 0.2654                     4 124 149 
-0.1982 0.2457 0.0320                     5 115 145 
0.3852 -0.0491 0.0750                     1 93 118 
-0.2351 0.4054 0.1426                     5 108 137 
0.3668 -0.0122 -0.1890                     9 105 130 
-0.2596 0.4177 -0.1522                     3 126 152 
0.3852 0.0860 0.2838                     1 121 147 
-0.0938 0.1597 0.2961                     0 114 148 
0.3852 -0.0306 0.0996                     2 89 117 
0.4036 0.0001 0.1303                     9 109 136 
0.3483 0.1229 0.0259                     12 137 162 
-0.2289 0.3501 -0.0662                     4 92 119 
0.0044 0.1843 -0.1952                     5 115 147 
0.4159 0.0615 0.0996                     10 119 143 
0.3790 -0.0245 -0.1399                     8 95 117 
-0.1982 0.2457 -0.0846                     4 113 143 
-0.2105 0.2703 -0.1031                     2 112 143 
0.0536 -0.3377 -0.0171                     161 161 161 
0.3852 -0.0429 0.0934                     15 103 128 
0.4220 0.0553 0.0812                     8 111 140 
0.3852 -0.0306 0.1733                     9 82 109 
0.4097 0.0001 0.0505                     2 110 137 
0.4159 0.0615 0.0996                     5 113 139 
-0.2596 0.4545 0.2224                     10 142 169 
0.3975 0.0922 -0.1338                     4 124 151 
0.3545 0.0185 -0.1890                     4 78 100 
-0.2351 0.3501 -0.1399                     6 111 139 
0.3852 -0.0368 0.1242                     0 95 118 
0.1027 -0.3438 0.1119                     61 61 61 
0.3668 0.1106 -0.0724                     8 133 159 
-0.2105 0.2273 0.2408                     0 119 151 
0.3913 0.0492 -0.1706                     2 115 142 
0.3606 0.1106 0.2593                     7 133 158 
-0.2535 0.4054 0.2531                     8 123 150 
0.2869 0.1229 0.2101                     8 132 158 
-0.2228 0.3010 0.2040                     5 114 142 
0.2009 0.1966 0.3637                     7 130 158 
0.3852 -0.0368 0.0505                     10 98 123 
-0.2289 0.3256 0.1119                     6 102 131 
-0.2105 0.2703 0.0136                     5 116 144 
0.4159 0.0124 -0.0110                     4 110 135 
0.4159 0.0308 0.1610                     4 108 132 
0.3913 0.0308 -0.1645                     5 116 143 
-0.2289 0.3501 0.1917                     0 99 129 
0.0597 -0.3254 0.0689                     77 77 77 
0.3668 -0.0368 -0.1768                     15 109 135 
0.3913 0.0983 -0.0785                     5 130 156 
0.0167 -0.3008 0.0075                     167 167 167 
0.1334 -0.3561 -0.0969                     132 132 132 
0.1150 -0.3500 0.1303                     56 56 56 
0.4159 0.0553 -0.0724                     5 108 137 
-0.1798 0.1904 0.0013                     5 114 144 
0.3115 0.0860 0.3759                     3 91 114 
-0.2289 0.3440 0.1303                     0 88 116 
0.0474 -0.3193 0.0566                     124 124 124 
0.4036 0.0799 -0.1215                     5 123 150 
0.3913 -0.0122 -0.0785                     0 108 140 
0.4036 0.0185 -0.1399                     3 120 144 
0.3975 0.0922 -0.0785                     5 128 155 
-0.2351 0.3931 0.0382                     4 97 126 
0.4097 0.0615 0.1978                     7 112 135 
-0.2289 0.3317 -0.0539                     5 80 107 
-0.1614 -0.3623 -0.1338                     125 125 125 
0.3729 0.0799 0.3084                     11 120 147 
0.3975 0.0246 0.2593                     1 115 140 
0.1088 -0.3500 0.1057                     145 145 145 
-0.2412 0.4177 0.2101                     2 118 145 
0.3053 0.0922 0.3391                     0 84 114 
0.0106 -0.1842 0.0320                     128 129 130 
0.3852 0.0983 0.0812                     8 133 159 
0.2624 0.1597 -0.2259                     15 113 136 
0.3115 0.0922 -0.2136                     2 110 138 
0.2931 0.1290 -0.0171                     8 133 159 
0.4159 0.0246 0.0873                     2 112 135 
-0.2228 0.3010 0.0443                     4 107 135 
0.3975 -0.0061 -0.1092                     5 115 138 
0.3483 0.0246 0.3207                     0 80 104 
0.3238 0.0492 -0.2136                     7 105 131 
0.3852 -0.0429 -0.0846                     7 100 125 
-0.2474 0.3685 -0.1522                     4 122 149 
-0.2167 0.3010 -0.1092                     4 113 139 
-0.2228 0.2948 0.0566                     1 110 138 
0.3852 -0.0368 0.1549                     8 91 119 
-0.2351 0.2703 -0.1645                     3 119 147 
0.1211 -0.3561 0.1671                     167 167 167 
-0.0816 -0.3316 -0.0539                     112 112 112 
-0.2289 0.3747 0.0812                     0 94 123 
0.2439 0.1843 0.4005                     4 117 142 
0.3299 0.0615 0.3514                     10 90 112 
0.2501 0.1904 -0.2320                     4 122 146 
-0.1675 0.1413 0.1426                     4 107 139 
0.2746 0.1413 0.3514                     9 106 136 
0.0044 -0.1535 0.0382                     164 164 166 
-0.1614 0.1352 0.0013                     8 110 141 
0.4036 -0.0061 0.0566                     5 108 134 
0.2562 0.1782 -0.2259                     12 114 139 
-0.1860 0.1413 -0.1338                     0 103 137 
0.3790 -0.0306 0.2593                     3 82 103 
0.4036 0.0738 0.2163                     9 118 144 
-0.2351 0.4177 0.0812                     2 103 133 
-0.2228 0.2826 0.2040                     0 112 143 
0.3606 0.1168 -0.0417                     7 132 158 
0.3975 -0.0061 0.0873                     4 104 130 
-0.1860 0.1966 -0.0539                     4 114 145 
0.3913 -0.0122 0.1549                     6 109 132 
0.4036 0.0492 0.2347                     6 109 135 
0.4159 0.0615 0.1119                     7 115 140 
-0.1921 0.2212 -0.0724                     0 111 142 
0.3975 -0.0061 0.1426                     6 104 134 
0.3729 -0.0245 -0.1645                     3 93 120 
-0.2228 0.3133 -0.0539                     4 102 130 
0.4159 0.0246 0.1119                     0 109 133 
0.3975 -0.0061 -0.0908                     3 113 139 
0.4097 0.0553 -0.1154                     7 114 141 
-0.2105 0.2703 0.1733                     7 114 142 
0.4220 0.0431 -0.0601                     0 110 137 
-0.2105 0.2764 0.0198                     3 116 146 
-0.2351 0.3563 -0.1276                     5 107 133 
0.0228 0.1659 0.3084                     0 117 150 
-0.1982 0.1966 0.2101                     1 115 147 
-0.2535 0.3931 -0.1522                     4 121 148 
-0.2351 0.2703 0.2654                     5 125 152 
0.4220 0.0431 -0.0662                     7 115 142 
-0.0508 -0.3438 0.0812                     136 136 136 
0.3975 0.0369 -0.1583                     6 115 143 
0.1334 0.1229 -0.1890                     0 88 119 
0.2439 0.1782 -0.2136                     8 122 150 
-0.2351 0.3992 -0.1092                     6 113 140 
0.3790 0.1045 -0.0417                     8 133 159 
0.3852 -0.0061 -0.1338                     1 105 134 
-0.2351 0.4177 -0.0110                     6 108 138 
-0.1737 0.1597 0.1364                     6 109 140 
-0.1798 0.1904 0.0075                     1 113 142 
0.0044 0.1843 0.3207                     0 123 155 
0.4036 -0.0061 0.0382                     2 102 128 
-0.2228 0.3010 0.0812                     7 112 141 
0.3053 0.1045 -0.2198                     12 114 140 
-0.2105 0.1597 -0.1645                     5 117 149 
0.2746 0.1352 0.3452                     3 109 141 
0.3852 -0.0306 -0.1154                     0 95 122 
0.4159 0.0676 0.1242                     3 112 139 
0.4159 0.0615 0.1426                     1 106 132 
-0.1552 -0.3623 -0.1276                     121 121 121 
-0.0754 -0.3193 -0.0171                     128 128 128 
0.4097 0.0676 0.2101                     1 109 136 
0.3238 0.0676 0.3514                     7 104 127 
0.4159 0.0308 -0.0969                     6 111 137 
0.4097 0.0676 -0.1276                     6 116 142 
-0.2289 0.3194 -0.1215                     3 103 129 
0.4220 0.0369 -0.0294                     4 116 141 
0.3545 0.0062 -0.2013                     10 109 137 
-0.2351 0.3870 -0.1031                     5 110 138 
0.3668 0.1106 -0.0785                     9 132 159 
0.4159 0.0246 -0.0232                     3 111 138 
0.4097 0.0185 0.2163                     4 110 135 
0.0106 -0.2517 0.0075                     162 162 164 
-0.2412 0.4422 0.1487                     6 119 147 
-0.2167 0.1904 -0.1706                     3 118 146 
-0.1860 0.1843 -0.0846                     0 107 140 
-0.1798 0.1904 0.0627                     0 109 139 
-0.2289 0.3133 0.0443                     4 107 135 
0.4097 0.0553 -0.1338                     7 118 145 
-0.1798 0.1904 0.0812                     0 108 139 
0.3975 -0.0122 0.0627                     5 103 128 
0.2071 0.1659 -0.2075                     2 105 137 
0.0843 -0.3438 0.1426                     158 158 158 
-0.2289 0.3440 -0.1154                     3 93 119 
0.4097 0.0676 0.1794                     7 118 143 
0.3606 0.1106 -0.0969                     10 137 162 
0.3852 -0.0429 -0.0355                     9 102 127 
0.3790 -0.0245 -0.1522                     0 93 119 
0.3975 0.0860 0.2224                     3 121 148 
0.3975 0.0922 -0.0662                     8 131 157 
-0.2289 0.3133 0.1978                     5 113 141 
-0.2105 0.2703 0.0689                     2 115 144 
0.3913 -0.0122 0.0750                     2 101 126 
0.1272 -0.3623 0.1856                     137 137 137 
-0.2474 0.3010 -0.1645                     0 105 131 
-0.2289 0.2641 0.2593                     4 119 149 
0.4097 0.0124 0.1364                     0 108 133 
-0.2596 0.3685 -0.1645                     6 120 145 
0.3729 -0.0184 0.2961                     6 82 104 
-0.0631 -0.3316 0.0996                     154 154 154 
0.3852 -0.0306 0.0320                     8 92 117 
-0.2351 0.3256 0.0382                     0 84 111 
0.3545 0.0185 -0.1952                     4 106 131 
0.4036 -0.0061 0.0320                     7 109 134 
-0.2105 0.2826 -0.1031                     6 113 142 
0.3913 0.0860 -0.1461                     4 125 151 
0.4159 0.0124 0.0443                     6 109 135 
-0.2289 0.2887 0.2408                     3 118 147 
0.3299 0.0492 0.3637                     5 89 111 
0.3668 0.0001 -0.1768                     11 52 69 
0.0044 -0.2640 0.0013                     134 134 134 
0.2931 0.1168 -0.2075                     3 106 135 
0.2501 0.1843 0.3882                     7 116 141 
0.4220 0.0553 -0.0417                     0 109 135 
-0.2167 0.3133 -0.1031                     9 107 135 
0.4097 0.0185 0.0750                     8 112 137 
-0.1737 0.1659 -0.0539                     0 107 139 
0.3852 0.0983 -0.0417                     10 133 160 
0.0413 -0.3254 0.0013                     147 147 147 
0.3852 -0.0429 -0.1215                     14 114 137 
-0.2105 0.2641 0.1426                     2 105 135 
-0.1675 0.1659 0.0198                     5 110 142 
-0.1614 -0.4052 0.1917                     137 137 137 
0.4220 0.0553 0.0566                     9 113 139 
0.3852 -0.0429 0.0689                     14 106 129 
0.3729 -0.0306 -0.1706                     7 107 131 
0.3852 -0.0306 -0.0294                     6 91 117 
-0.2412 0.4361 -0.0662                     7 118 146 
0.3483 0.0124 0.3022                     9 36 48 
-0.2289 0.3685 0.0627                     1 94 120 
0.1518 -0.3684 0.1917                     166 166 166 
-0.1430 0.2212 -0.2013                     5 134 164 
-0.2351 0.4115 -0.0294                     10 111 140 
-0.2351 0.3808 0.0198                     0 94 122 
0.0474 0.1290 0.3022                     0 109 144 
-0.0140 0.1904 -0.1952                     0 117 149 
0.3975 0.0492 0.2593                     5 108 134 
-0.2351 0.4115 0.1794                     1 110 139 
0.4097 0.0431 -0.1338                     4 116 143 
0.3729 -0.0368 0.2593                     4 89 110 
0.3913 -0.0122 -0.0969                     6 102 128 
0.1457 0.1843 0.3391                     3 123 154 
0.0720 0.2150 0.3575                     6 135 162 
0.4159 0.0615 0.0382                     2 109 136 
-0.1737 0.1659 0.0566                     2 108 140 
-0.2044 0.2457 -0.0969                     7 115 144 
0.3729 0.1045 0.2040                     6 131 156 
0.4036 0.0308 0.2286                     2 105 134 
0.4036 0.0738 -0.1092                     0 116 143 
0.3852 -0.0368 0.1364                     4 92 118 
0.0351 -0.3377 0.0382                     166 166 166 
0.4036 0.0001 0.1978                     5 114 142 
-0.0508 -0.3377 -0.0417                     148 148 148 
-0.1614 0.1352 0.0627                     5 108 140 
0.3790 -0.0429 0.2531                     11 90 115 
0.1211 -0.3745 -0.0908                     161 161 161 
0.4097 0.0062 -0.0969                     7 115 143 
0.0904 -0.3438 0.1180                     95 95 95 
0.3790 0.0983 0.2347                     12 132 158 
0.3913 0.0553 0.2838                     3 112 140 
0.2685 0.1229 -0.1215                     6 130 156 
0.4036 0.0799 -0.1215                     7 125 151 
-0.1798 0.1659 0.1364                     2 107 139 
-0.2351 0.3563 0.0505                     3 88 117 
0.4097 0.0369 -0.1276                     8 118 145 
-0.1675 -0.3991 0.2101                     137 137 137 
0.3729 0.1045 0.1549                     9 130 156 
0.2132 0.1229 0.3207                     0 102 138 
-0.2412 0.4177 0.2040                     5 119 145 
-0.2351 0.3992 -0.0232                     7 108 133 
0.3852 -0.0368 -0.0785                     1 95 120 
-0.1245 -0.3684 -0.1092                     159 159 159 
0.2808 0.1352 0.3637                     0 109 136 
0.2685 0.1536 -0.2259                     13 113 137 
0.3852 -0.0306 -0.0908                     4 94 119 
0.3852 -0.0368 0.1119                     5 94 120 
0.4159 0.0738 0.1057                     5 114 141 
-0.1860 0.1966 -0.0846                     3 109 140 
0.4220 0.0553 0.0689                     5 105 136 
0.2439 0.1904 -0.2320                     13 124 149 
0.3852 -0.0245 0.0627                     4 59 68 
-0.2351 0.4177 0.1303                     7 108 138 
0.3975 0.0799 -0.1522                     6 121 149 
0.2624 0.1659 -0.2259                     6 110 137 
0.4159 0.0369 0.1242                     5 108 134 
0.3975 -0.0122 -0.0232                     0 101 126 
-0.2351 0.3931 -0.0110                     5 102 129 
0.4036 0.0124 -0.1338                     0 118 143 
-0.2351 0.3931 -0.0110                     7 102 130 
-0.1982 0.1966 0.2040                     0 112 144 
0.4159 0.0676 0.1303                     1 106 133 
0.2685 0.1168 -0.2013                     3 102 133 
0.3545 0.1106 -0.1706                     9 135 158 
0.0904 0.1229 0.3022                     0 106 140 
-0.1982 -0.3930 0.2777                     177 177 177 
0.3852 -0.0429 0.0013                     11 103 128 
0.3913 0.0676 0.2838                     11 118 143 
0.4159 0.0185 0.1057                     8 118 140 
-0.2105 0.1904 -0.1583                     2 119 151 
-0.2289 0.3256 0.1364                     5 98 125 
0.3606 0.1106 0.1487                     15 139 162 
-0.2351 0.2826 0.2593                     7 123 151 
0.3852 -0.0491 -0.1092                     7 100 127 
0.4097 0.0062 -0.0294                     8 114 137 
0.4036 0.0799 0.2286                     8 121 148 
0.4097 0.0799 0.0627                     10 123 147 
-0.2535 0.4484 -0.0662                     9 145 170 
0.2624 0.1229 -0.2013                     2 99 132 
0.4159 0.0676 -0.0294                     6 117 143 
0.3852 -0.0306 -0.0785                     0 97 123 
-0.2351 0.3317 0.2040                     0 101 127 
0.4097 0.0185 -0.0969                     10 117 143 
0.4220 0.0308 -0.0539                     5 110 139 
0.4036 0.0615 0.2347                     6 117 139 
-0.1737 0.1659 0.0566                     2 108 140 
0.2378 0.1413 -0.2013                     0 104 135 
-0.2228 0.3133 0.1426                     0 106 135 
-0.2044 0.2150 -0.1338                     6 118 148 
0.3852 -0.0245 0.1733                     10 77 102 
-0.2535 0.4545 -0.1031                     5 144 168 
0.3852 -0.0306 -0.0171                     6 91 117 
0.3913 -0.0122 -0.0969                     0 109 136 
-0.0386 -0.3131 -0.0110                     125 125 125 
0.3852 -0.0368 0.1549                     8 91 119 
0.0290 -0.3500 -0.0048                     155 155 155 
0.3852 -0.0184 0.1364                     9 98 118 
-0.2167 0.2948 0.0934                     7 114 141 
0.2194 0.1352 0.3268                     0 105 139 
0.3790 0.1045 -0.1031                     1 133 157 
-0.1860 0.1843 -0.0846                     0 107 140 
-0.2289 0.3685 -0.1154                     5 105 134 
0.1948 0.1782 -0.2075                     6 111 142 
0.3790 -0.0491 0.2408                     5 84 109 
0.3852 -0.0306 -0.0785                     0 97 123 
0.3975 0.0860 -0.0969                     7 127 153 
0.4036 0.0860 -0.0232                     0 118 145 
0.4220 0.0369 0.0873                     4 107 134 
0.4036 0.0922 -0.0539                     8 129 156 
0.3729 0.1168 0.0013                     6 131 158 
0.2316 0.1168 -0.1952                     4 96 130 
-0.2351 0.4361 0.0259                     4 119 145 
0.3053 0.0983 0.3452                     3 103 132 
0.3852 -0.0306 0.0627                     6 89 115 
0.2378 0.1966 -0.2198                     1 120 149 
0.3852 -0.0184 0.1242                     7 96 118 
0.2746 0.1413 0.3759                     4 105 129 
0.3790 -0.0429 0.2531                     9 87 113 
0.3975 0.0062 -0.1522                     5 116 143 
0.3729 -0.0184 0.2470                     14 65 87 
-0.2474 0.3563 -0.1522                     3 117 145 
0.3975 -0.0061 -0.0724                     0 108 136 
-0.2596 0.4177 0.2531                     4 126 151 
0.3913 0.0922 0.2286                     10 128 154 
0.4159 0.0124 -0.0171                     5 111 136 
0.4159 0.0615 0.0443                     5 112 138 
-0.2167 0.1904 -0.1706                     3 118 146 
0.3545 0.1168 -0.1276                     10 137 164 
0.4159 0.0615 -0.0232                     3 111 139 
0.4159 0.0738 0.0382                     7 115 142 
0.4036 0.0922 -0.0294                     10 130 156 
-0.2351 0.3194 -0.1338                     8 109 135 
0.3668 0.1045 0.2715                     11 136 162 
0.3729 0.1168 0.0320                     5 131 157 
-0.2412 0.3256 -0.1522                     5 113 139 
-0.2228 0.3071 0.0689                     5 107 138 
-0.1982 0.2396 -0.0294                     1 111 143 
0.1580 0.1290 0.3084                     2 108 143 
0.3852 -0.0491 -0.0724                     10 103 127 
0.4036 0.0799 0.1856                     6 124 150 
0.1150 0.1966 -0.2075                     1 125 155 
0.4097 0.0492 0.1671                     7 110 136 
0.3668 0.0860 -0.1890                     8 129 156 
0.1887 0.1659 -0.2013                     2 103 136 
0.2624 0.1597 -0.2075                     1 114 143 
-0.2228 0.3071 0.1180                     1 110 138 
-0.2351 0.3501 -0.1338                     7 105 133 
0.1088 0.1536 -0.1952                     2 98 127 
0.4097 0.0369 0.2040                     3 107 131 
-0.1982 0.2334 0.1119                     3 115 145 
0.4159 0.0676 0.1303                     1 106 133 
-0.1982 0.2396 0.1733                     2 108 142 
0.4097 0.0001 0.0443                     6 112 137 
0.4036 -0.0122 0.0259                     10 111 134 
-0.1737 0.1659 0.0750                     0 106 138 
0.0720 0.1597 0.3145                     1 117 150 
0.4036 0.0860 -0.0355                     4 122 149 
0.2132 0.1720 -0.2075                     4 112 142 
-0.1982 0.2334 -0.0539                     2 112 143 
-0.2167 0.1843 0.2777                     2 121 150 
0.3852 -0.0429 -0.0171                     11 103 129 
-0.2351 0.4115 -0.0110                     4 105 134 
0.3852 0.0983 0.2408                     6 127 154 
-0.1982 0.2089 -0.1215                     3 113 146 
0.2992 0.0983 0.3821                     0 83 108 
0.4036 0.0001 0.1426                     1 107 131 
0.0720 0.1229 -0.1829                     0 89 124 
0.2869 0.1290 -0.0417                     7 132 159 
-0.1860 0.1966 -0.0171                     10 117 148 
-0.2351 0.4115 -0.0171                     3 106 136 
-0.2289 0.3563 -0.0846                     5 96 122 
-0.1982 0.2396 -0.0969                     0 110 140 
0.2378 0.1475 0.3391                     0 111 142 
0.4159 0.0185 -0.0171                     6 112 136 
0.4036 0.0860 0.1242                     6 129 153 
0.4220 0.0246 -0.0171                     0 108 133 
0.0351 -0.3193 0.0198                     167 167 167 
0.4097 0.0615 -0.1338                     7 117 144 
-0.2535 0.3992 0.2531                     4 119 147 
-0.1798 0.1720 0.0934                     3 108 140 
0.0351 -0.3377 0.0075                     166 166 166 
0.3668 -0.0061 0.3022                     7 77 103 
0.0965 0.1413 0.3084                     0 109 145 
0.3790 0.0983 0.2286                     9 129 156 
0.4036 0.0001 0.0996                     0 106 135 
0.4220 0.0246 0.0505                     3 107 133 
-0.1675 -0.3807 0.2347                     132 132 132 
-0.1798 0.1843 0.0320                     1 110 141 
0.0290 0.2089 -0.2075                     1 132 161 
0.4036 0.0431 -0.1522                     1 116 142 
0.4159 0.0615 0.0013                     4 112 139 
-0.2351 0.4054 -0.0539                     8 111 139 
0.4097 0.0492 -0.1461                     7 118 144 
0.3913 -0.0184 0.0198                     7 85 102 
0.4036 0.0860 0.1549                     9 128 154 
0.2009 0.2027 -0.2198                     8 130 160 
0.3975 0.0799 -0.1399                     5 122 149 
0.4036 0.0922 0.1057                     8 129 153 
0.3790 0.0983 -0.1215                     14 138 163 
-0.2289 0.3194 -0.1215                     4 103 128 
0.3238 0.0553 -0.2198                     13 116 137 
0.2869 0.1290 0.0259                     8 133 158 
0.4159 0.0615 0.0505                     5 111 137 
0.3422 0.0185 0.3514                     1 80 104 
0.3852 -0.0429 -0.0355                     7 100 125 
0.4036 0.0922 0.0505                     9 131 155 
0.4220 0.0553 0.0996                     4 110 136 
0.1457 -0.3623 0.1610                     52 52 52 
0.3238 0.0553 0.3637                     5 92 116 
-0.2228 0.2764 0.2286                     2 117 146 
-0.0017 -0.3070 0.0505                     130 131 131 
-0.1798 0.1904 0.0566                     5 113 143 
0.4097 0.0124 0.1364                     4 111 136 
-0.2351 0.4177 -0.1031                     2 109 136 
0.4159 0.0185 0.0566                     1 103 130 
-0.1860 0.1843 -0.0785                     0 105 139 
0.3790 -0.0245 -0.1215                     12 85 106 
-0.2289 0.3685 0.1242                     1 97 128 
0.3975 0.0860 0.1733                     5 126 154 
0.3975 -0.0061 0.1549                     9 105 133 
-0.2351 0.4115 0.0443                     0 101 127 
0.3422 0.0308 -0.1890                     3 55 73 
0.4036 0.0553 -0.1461                     9 120 146 
-0.2535 0.4545 0.1671                     6 144 170 
-0.0079 0.2027 -0.2013                     4 131 161 
0.0536 -0.3254 -0.0294                     63 63 63 
0.4097 0.0062 0.0750                     3 106 134 
0.3729 0.1106 0.1057                     5 129 156 
-0.2351 0.3870 -0.0048                     5 97 127 
0.4159 0.0369 -0.1154                     7 118 143 
-0.2105 0.2764 0.1242                     5 114 143 
0.3053 0.1290 0.1057                     6 134 159 
0.1088 -0.3500 -0.1031                     155 155 155 
-0.2289 0.3624 0.1671                     8 102 129 
-0.1737 0.1720 0.0505                     0 109 140 
-0.1491 -0.3623 -0.1276                     152 152 152 
0.3790 0.0676 0.3022                     9 123 149 
0.3176 0.0799 0.3514                     4 96 125 
0.0106 -0.1596 0.0320                     123 124 126 
0.4097 0.0124 0.1426                     1 107 132 
0.0965 0.1720 -0.1952                     2 106 139 
0.3176 0.0860 -0.2075                     3 118 146 
-0.2167 0.1904 -0.1645                     3 119 149 
0.0044 0.1413 -0.1829                     0 94 125 
-0.0816 0.1536 -0.1829                     0 100 135 
-0.0079 0.2027 -0.2013                     4 131 161 
0.3975 -0.0061 0.1610                     4 103 126 
0.4036 0.0001 0.0689                     6 108 134 
0.3790 -0.0491 -0.1399                     7 106 131 
0.3975 -0.0061 0.0996                     1 107 137 
0.0658 -0.3438 0.1303                     130 130 130 
0.0720 0.1475 0.3084                     0 113 147 
0.3483 0.1229 0.0198                     11 136 161 
0.3975 -0.0122 -0.0048                     4 104 129 
-0.2105 0.2826 0.1610                     6 113 141 
0.4159 0.0615 -0.0232                     3 105 135 
0.3852 -0.0368 -0.0478                     8 102 129 
0.4220 0.0369 -0.0478                     6 111 139 
0.4159 0.0615 0.0198                     6 115 141 
0.4036 0.0922 0.0382                     15 134 158 
0.0167 0.1475 -0.1829                     5 99 132 
0.3913 0.0001 -0.1461                     9 118 143 
0.3852 -0.0306 0.2163                     7 82 106 
0.3913 -0.0122 -0.0724                     3 102 129 
0.3852 -0.0368 -0.0171                     10 99 125 
0.1641 -0.3684 0.1671                     101 101 101 
0.3852 -0.0306 -0.0294                     0 87 106 
0.1641 -0.3684 -0.1215                     61 61 61 
-0.2535 0.3685 -0.1522                     2 122 149 
0.4097 0.0553 0.2163                     2 107 130 
0.3852 -0.0368 -0.0478                     7 101 127 
0.0781 -0.3377 0.1119                     160 160 160 
-0.2167 0.2826 0.1057                     6 115 144 
-0.2412 0.4422 0.1549                     6 118 147 
0.4159 0.0431 -0.1031                     6 114 141 
-0.1860 0.1475 -0.1276                     3 106 139 
0.4097 0.0124 0.1610                     8 112 135 
0.2869 0.1290 -0.2198                     5 111 135 
-0.2044 0.2150 0.2163                     4 120 149 
0.3913 -0.0122 0.0873                     8 106 131 
0.4097 0.0185 0.2040                     2 109 134 
0.1211 -0.3561 0.1671                     167 167 167 
0.2931 0.1229 0.1426                     7 133 158 
-0.2351 0.3992 0.1426                     0 105 135 
0.4097 0.0799 0.1426                     2 113 141 
0.4097 0.0799 0.1303                     8 123 149 
0.4036 0.0124 -0.1338                     1 119 143 
-0.2044 0.2519 -0.0724                     8 115 144 
-0.2351 0.4300 0.0750                     7 115 143 
0.4097 0.0431 -0.1399                     3 115 142 
0.4159 0.0615 0.1364                     6 108 134 
0.1887 0.1475 -0.1952                     4 97 131 
-0.1982 0.2334 0.1364                     4 116 146 
0.2132 0.2027 0.3944                     5 118 143 
0.4097 0.0799 0.0873                     11 127 152 
0.4097 0.0738 0.1978                     5 119 144 
0.2501 0.1536 0.3452                     3 113 143 
0.3115 0.0922 -0.2075                     5 113 141 
0.4220 0.0308 -0.0478                     3 111 139 
0.1641 -0.3684 -0.1276                     63 63 63 
0.4220 0.0431 0.0075                     7 111 138 
-0.2289 0.3501 -0.0846                     6 95 122 
0.3668 0.1168 0.0812                     10 134 160 
