ply
format ascii 1.0
comment VCGLIB generated
element vertex 912
property float x
property float y
property float z
property uchar red
property uchar green
property uchar blue
element face 0
property list uchar int vertex_indices
end_header
0.2101 -0.4115 0.5913                     177 100 100 
0.4127 0.2210 0.0325                     79 79 79 
0.2776 0.2763 0.2474                     92 92 92 
0.1241 0.2518 0.4992                     81 81 81 
0.3697 0.2026 0.0877                     190 120 120 
-0.0417 0.4851 0.0754                     130 130 130 
0.0074 0.5097 0.0570                     131 131 131 
0.2162 0.2763 0.4378                     85 85 85 
0.0811 0.2210 0.0447                     113 113 113 
-0.0356 0.5035 0.3886                     97 97 97 
0.1179 0.3562 0.6036                     111 111 111 
0.4311 -0.3992 0.0202                     152 47 47 
-0.0294 -0.0492 0.5729                     185 52 52 
0.2408 0.2763 0.3211                     88 88 88 
-0.0663 0.4851 0.2044                     104 104 104 
-0.0110 0.0368 0.0325                     169 80 80 
0.0565 0.3807 0.5974                     92 92 92 
0.0872 0.1903 0.0816                     143 45 45 
0.2285 0.2026 0.3764                     99 99 99 
0.1916 0.1965 0.3395                     100 100 100 
0.5662 -0.2641 0.5545                     195 76 76 
0.0013 0.2088 0.3641                     74 74 74 
0.5540 0.2395 0.4009                     101 101 101 
0.4496 0.2210 0.5299                     125 125 125 
-0.0540 0.4544 0.3457                     96 96 96 
0.0442 0.2088 0.4930                     76 76 76 
0.2899 0.2640 0.0447                     83 83 83 
0.0381 0.2210 0.4623                     71 71 71 
0.0504 0.2579 0.5545                     156 86 86 
0.0688 0.3132 0.5790                     89 89 89 
0.5171 0.0982 0.0325                     163 46 46 
0.2776 0.2763 0.3948                     87 87 87 
0.5171 0.2640 0.3150                     86 86 86 
0.5662 -0.2334 0.5729                     153 58 58 
0.2101 0.2026 0.4808                     100 100 100 
0.0504 0.2579 0.2597                     85 85 85 
0.0627 0.1842 0.1798                     100 100 100 
0.0013 0.3746 0.3579                     167 96 96 
0.5355 0.0307 0.5299                     181 85 85 
0.4618 -0.4176 0.5852                     160 49 49 
0.4741 0.2026 0.3948                     97 97 97 
0.0074 0.1658 0.3579                     97 97 97 
-0.0479 0.5281 0.4255                     101 101 101 
0.0074 0.3500 0.0939                     182 57 57 
0.0013 0.4728 0.5606                     85 85 85 
0.4803 0.2026 0.3764                     97 97 97 
0.0750 0.5097 0.6159                     109 109 109 
0.4803 0.2702 0.3702                     86 86 86 
0.0135 0.1289 0.5360                     168 67 67 
0.0442 0.4114 0.5974                     89 89 89 
0.0320 0.4114 0.0509                     131 131 131 
0.3759 0.2272 0.0325                     79 79 79 
0.0565 0.1781 0.2413                     100 100 100 
0.4926 0.2763 0.2474                     85 85 85 
0.1241 -0.3931 0.0079                     156 81 81 
0.1179 -0.4054 0.5913                     125 46 46 
0.0258 0.1719 0.0509                     147 96 96 
0.1241 0.2640 0.1123                     87 87 87 
0.3083 0.2763 0.2781                     91 91 91 
0.0320 0.4298 0.0140                     131 131 131 
-0.0172 0.0675 0.0386                     158 50 50 
-0.0540 0.5281 0.4194                     102 102 102 
-0.0049 0.4667 0.5422                     85 85 85 
0.2715 0.2026 0.1553                     96 96 96 
0.5540 0.2579 0.2290                     84 84 84 
0.5417 0.2026 0.4194                     100 100 100 
0.2162 0.1965 0.3211                     172 67 67 
0.4803 0.2579 0.0939                     80 80 80 
0.3452 0.2763 0.2106                     92 92 92 
0.3267 0.2272 0.5606                     101 101 101 
-0.0233 0.4606 0.1614                     112 112 112 
0.3145 -0.4115 0.0079                     172 48 48 
-0.0724 0.5158 0.2535                     103 103 103 
0.1609 0.2088 0.5729                     102 102 102 
0.3820 0.2088 0.5176                     99 99 99 
0.3513 0.2026 0.3457                     94 94 94 
0.3636 -0.3869 0.5729                     153 58 58 
0.1118 -0.4115 0.5729                     170 47 47 
0.4741 0.2640 0.4439                     89 89 89 
0.0811 0.2579 0.3702                     83 83 83 
0.2346 0.2640 0.5176                     85 85 85 
-0.0049 0.4421 0.0447                     130 130 130 
0.0074 0.3623 0.1000                     161 72 72 
0.3882 -0.3869 0.5790                     152 57 57 
0.0320 0.4790 0.6036                     88 88 88 
0.4127 0.2763 0.3088                     89 89 89 
0.3759 0.2763 0.2658                     92 92 92 
0.1732 -0.3992 0.0079                     161 65 65 
0.1302 0.1965 0.0693                     99 99 99 
0.1118 0.3377 0.5790                     117 117 117 
0.4987 0.2026 0.4439                     100 100 100 
0.2653 0.2026 0.4132                     96 96 96 
0.1118 0.2333 0.5483                     55 55 55 
0.5294 0.2026 0.2658                     94 94 94 
0.4496 0.2702 0.4009                     86 86 86 
-0.0110 0.5220 0.0632                     130 130 130 
0.4864 0.1842 0.0386                     194 54 54 
0.1241 0.3807 0.5667                     96 96 96 
0.5110 0.2640 0.3395                     86 86 86 
-0.0294 0.5035 0.3886                     96 96 96 
-0.0479 0.5281 0.3948                     104 104 104 
0.0197 0.1351 0.0386                     175 70 70 
0.0627 0.3254 0.0325                     127 127 127 
0.3267 0.2026 0.4194                     162 45 45 
0.2162 0.2026 0.5238                     100 100 100 
0.5417 0.2579 0.3641                     88 88 88 
0.1241 0.4298 0.6159                     120 120 120 
-0.0417 0.4176 0.1491                     101 101 101 
0.2776 0.2026 0.3334                     97 97 97 
-0.0417 0.5158 0.2597                     105 105 105 
0.2285 0.2763 0.3395                     86 86 86 
0.2162 0.2026 0.1614                     99 99 99 
0.5540 0.2088 0.4255                     124 124 124 
0.0565 0.1842 0.4992                     99 99 99 
-0.0417 0.4176 0.2167                     97 97 97 
0.4987 0.2026 0.3886                     97 97 97 
-0.0540 0.4851 0.4132                     92 92 92 
0.2101 0.1965 0.2044                     172 66 66 
0.1118 0.1903 0.2351                     100 100 100 
-0.0172 0.0491 0.5606                     171 117 117 
0.2101 0.2088 0.0202                     103 103 103 
0.5110 0.2088 0.0693                     93 93 93 
0.0750 0.2763 0.5545                     101 101 101 
0.3452 0.2026 0.3395                     94 94 94 
0.0504 0.2702 0.0386                     155 65 65 
-0.0540 0.4606 0.3211                     97 97 97 
0.4066 0.2763 0.1491                     85 85 85 
-0.0233 0.4667 0.3702                     98 98 98 
0.0565 0.1781 0.1798                     100 100 100 
0.2530 0.2763 0.0939                     85 85 85 
0.4373 0.2763 0.1614                     85 85 85 
0.0258 0.5035 0.0079                     126 126 126 
-0.0049 0.3746 0.3150                     166 70 70 
0.0934 -0.4115 0.0202                     175 100 100 
-0.0540 0.5281 0.4194                     102 102 102 
-0.0356 0.4298 0.1000                     114 114 114 
-0.0049 0.3746 0.0816                     108 108 108 
0.0627 0.3991 0.6097                     97 97 97 
0.0627 0.1842 0.1184                     99 99 99 
0.0872 0.3807 0.0263                     111 111 111 
0.1486 0.2456 0.0325                     90 90 90 
0.2408 0.2763 0.2904                     89 89 89 
-0.0356 0.5035 0.3457                     100 100 100 
-0.0356 0.4114 0.3457                     92 92 92 
0.4127 0.2333 0.5299                     99 99 99 
0.1609 0.1842 0.1000                     166 53 53 
0.1057 0.1842 0.4623                     193 116 116 
0.0258 0.5035 0.0079                     126 126 126 
0.3329 0.2702 0.4992                     86 86 86 
0.0320 0.5158 0.5422                     90 90 90 
-0.0110 0.4913 0.0877                     132 132 132 
0.2469 0.2026 0.2781                     97 97 97 
0.5847 0.2026 0.2842                     99 99 99 
0.2469 0.2763 0.4623                     85 85 85 
-0.0356 0.5220 0.3825                     97 97 97 
0.0934 0.2579 0.4194                     83 83 83 
0.0320 0.2149 0.4685                     58 58 58 
0.3452 0.2026 0.2904                     94 94 94 
-0.0233 0.3991 0.1000                     103 103 103 
0.2960 0.2026 0.0447                     99 99 99 
0.5478 0.2026 0.4194                     100 100 100 
0.4741 0.2763 0.2351                     85 85 85 
0.3206 0.2149 0.5729                     114 102 102 
0.1732 0.2640 0.0570                     87 87 87 
0.3022 0.2763 0.3518                     89 89 89 
0.0381 0.3377 0.5667                     81 81 81 
0.3452 0.2518 0.5299                     89 89 89 
0.0627 0.1781 0.3088                     100 100 100 
0.0135 0.4606 0.0140                     130 130 130 
0.1916 0.2702 0.4194                     85 85 85 
0.0381 0.3009 0.0386                     192 63 63 
0.2592 0.2763 0.2535                     92 92 92 
-0.0356 0.5281 0.4869                     104 104 104 
0.2162 0.2026 0.0325                     99 99 99 
0.0135 0.3684 0.4071                     90 78 78 
0.2469 0.2026 0.5176                     100 100 100 
0.3513 0.2026 0.0877                     181 108 108 
0.0197 0.1535 0.5299                     186 104 104 
0.1302 0.2640 0.4378                     83 83 83 
0.0442 0.2947 0.0325                     120 120 120 
0.5785 0.2518 0.2535                     84 84 84 
0.3636 0.2026 0.3825                     96 96 96 
0.0934 0.1842 0.2044                     100 100 100 
0.2715 0.2763 0.3948                     87 87 87 
0.3820 0.2763 0.3027                     90 90 90 
0.4066 0.2702 0.4009                     86 86 86 
0.0135 0.3684 0.0939                     121 121 121 
0.3390 0.2763 0.2413                     94 94 94 
0.2285 0.2026 0.1983                     99 99 99 
0.3513 0.2456 0.0386                     77 77 77 
0.0381 0.1719 0.2597                     100 100 100 
0.5847 0.2272 0.1676                     86 86 86 
0.0013 0.5158 0.0202                     102 102 102 
0.1609 0.2026 0.0570                     99 99 99 
-0.0233 0.4483 0.3457                     101 101 101 
-0.0233 -0.0000 0.0202                     155 61 61 
0.5417 0.0552 0.5299                     156 53 53 
0.1118 0.2456 0.5115                     80 80 80 
0.5970 0.2272 0.2413                     60 60 60 
0.0872 0.2518 0.4501                     82 82 82 
0.1425 0.1965 0.3702                     100 100 100 
0.4741 0.2640 0.4439                     89 89 89 
0.3390 0.2579 0.5238                     87 87 87 
0.3759 0.2763 0.2597                     92 92 92 
0.1241 0.2518 0.5115                     81 81 81 
-0.0172 0.4298 0.1798                     109 109 109 
-0.0172 0.4790 0.5238                     85 85 85 
0.0135 0.4728 0.0570                     131 131 131 
0.1732 0.2763 0.2842                     85 85 85 
0.2715 0.2026 0.2658                     96 96 96 
-0.0724 0.5220 0.3027                     102 102 102 
-0.0356 0.4913 0.2351                     100 100 100 
0.5048 0.2333 0.0754                     59 59 59 
0.3636 0.2026 0.3702                     96 96 96 
0.4066 0.2763 0.3579                     86 86 86 
0.0258 0.2149 0.4562                     59 59 59 
-0.0356 -0.4176 0.0140                     165 89 89 
0.4803 0.2763 0.2904                     86 86 86 
0.0381 0.2456 0.3641                     82 82 82 
0.4066 0.2026 0.2474                     94 94 94 
0.1671 0.2702 0.3825                     85 85 85 
-0.0110 0.4913 0.4501                     89 89 89 
0.0872 0.1842 0.3518                     100 100 100 
0.0565 0.2026 0.0570                     127 127 127 
0.1179 0.1965 0.5422                     100 100 100 
-0.0294 0.3991 0.3334                     92 92 92 
-0.0356 0.4728 0.2842                     105 105 105 
-0.0417 0.5281 0.4623                     103 103 103 
0.3452 0.2088 0.5422                     99 99 99 
0.0320 0.2210 0.4623                     62 62 62 
0.5417 0.0122 0.5483                     173 76 76 
0.3083 -0.4054 0.0079                     169 50 50 
0.0627 0.5097 0.6159                     107 107 107 
0.0565 0.1842 0.1614                     100 100 100 
0.0504 0.4298 0.0018                     117 117 117 
-0.0479 0.4544 0.3948                     92 92 92 
0.1425 0.2640 0.4378                     83 83 83 
0.1302 0.1842 0.4316                     173 65 65 
0.0442 -0.3992 0.0079                     158 83 83 
0.4557 0.2026 0.2106                     94 94 94 
-0.0479 -0.3992 0.5974                     166 70 70 
0.5662 0.2518 0.1737                     81 81 81 
0.0381 0.3869 0.5852                     85 85 85 
0.0258 0.5158 0.5360                     90 90 90 
0.0074 0.4667 0.4746                     90 90 90 
-0.0479 0.5342 0.1860                     104 104 104 
0.2039 0.2026 0.1000                     155 42 42 
0.0565 0.5097 0.6097                     107 107 107 
0.1978 0.2026 0.1062                     99 99 99 
0.1364 0.2579 0.0632                     87 87 87 
0.1671 0.2763 0.2597                     85 85 85 
0.4496 0.2026 0.3457                     96 96 96 
0.4311 0.2026 0.3579                     96 96 96 
0.4434 0.2026 0.1921                     94 94 94 
0.0627 0.4298 0.0325                     124 124 124 
-0.0172 0.3746 0.2044                     174 70 70 
0.5601 0.2210 0.1184                     71 71 71 
0.5110 0.0982 0.0447                     156 57 57 
0.2715 0.2026 0.4194                     152 48 48 
-0.0049 0.3930 0.1798                     109 109 109 
-0.0049 0.3684 0.4316                     85 85 85 
0.0504 0.2579 0.1798                     87 87 87 
0.1671 0.2518 0.5360                     81 81 81 
0.1425 -0.3992 0.0202                     165 49 49 
0.1732 0.2702 0.1307                     86 86 86 
0.0627 0.1842 0.2167                     100 100 100 
0.5662 -0.3439 0.5667                     194 60 60 
-0.0172 0.5097 0.4501                     89 89 89 
0.4864 0.2640 0.3764                     86 86 86 
0.4496 0.2026 0.4501                     99 99 99 
0.1794 0.2640 0.4808                     83 83 83 
0.0872 0.1842 0.2290                     100 100 100 
0.2530 0.2026 0.4562                     99 99 99 
-0.0417 0.4913 0.2351                     97 97 97 
-0.0049 0.4114 0.5115                     81 81 81 
0.0258 0.3377 0.4992                     146 63 63 
0.1425 0.2640 0.0816                     87 87 87 
-0.0540 0.5281 0.4255                     101 101 101 
0.1794 0.2702 0.1123                     86 86 86 
0.0811 0.2640 0.2474                     86 86 86 
0.4373 0.2763 0.3150                     86 86 86 
0.2653 0.2026 0.0877                     97 97 97 
0.3145 0.2456 0.5545                     89 89 89 
0.4250 0.2272 0.0386                     66 66 66 
-0.0540 -0.1658 0.0140                     159 39 39 
0.0504 0.2579 0.2106                     86 86 86 
0.5847 0.2395 0.3027                     90 90 90 
0.0013 0.2149 0.1737                     88 88 88 
-0.0479 -0.1106 0.0263                     196 91 91 
-0.0479 -0.1351 0.0140                     152 37 37 
-0.0540 -0.4054 0.5790                     122 38 38 
0.5478 -0.1106 0.0325                     170 62 62 
0.0442 0.5035 0.0263                     132 132 132 
0.3390 0.2272 0.5606                     99 99 99 
0.5478 0.2026 0.4194                     100 100 100 
0.5662 -0.2395 0.5606                     183 55 55 
0.0872 -0.4054 0.0079                     170 50 50 
0.5478 0.2640 0.2597                     85 85 85 
0.4803 0.2763 0.2965                     86 86 86 
0.0074 0.3930 0.5299                     81 81 81 
-0.0294 0.3930 0.1921                     95 95 95 
0.4189 0.2763 0.1737                     86 86 86 
0.0872 0.1903 0.0509                     97 97 97 
0.5785 0.2395 0.3334                     89 89 89 
-0.0172 0.5220 0.5238                     104 104 104 
0.2162 0.2640 0.5053                     83 83 83 
0.4803 0.2026 0.0509                     148 62 62 
-0.0417 0.4237 0.3088                     96 96 96 
0.5417 -0.0369 0.5422                     185 61 61 
0.2960 0.2088 0.5238                     100 100 100 
0.0197 0.1719 0.2535                     100 100 100 
0.0013 0.3684 0.0693                     114 114 114 
0.0872 0.2579 0.1553                     87 87 87 
0.0565 0.2395 0.0939                     89 89 89 
0.2469 0.2763 0.1430                     89 89 89 
0.5478 0.2026 0.1614                     97 97 97 
0.0565 0.1781 0.2597                     100 100 100 
-0.0172 0.4913 0.1000                     130 130 130 
0.2408 0.2026 0.2167                     97 97 97 
0.2838 -0.4115 0.5913                     177 98 98 
0.0627 0.5035 0.0202                     122 122 122 
0.1118 -0.4115 0.5913                     178 104 104 
0.0258 0.3991 0.4930                     89 89 89 
0.5294 0.2088 0.0816                     91 91 91 
0.4618 0.2088 0.5053                     101 101 101 
0.2715 0.2210 0.5729                     101 101 101 
0.0504 0.3070 0.5545                     86 86 86 
0.3513 0.2333 0.0325                     79 79 79 
0.5355 0.0737 0.5360                     193 52 52 
0.3145 0.2763 0.1430                     88 88 88 
0.1179 0.4606 0.5729                     90 90 90 
0.2469 0.2395 0.0202                     93 93 93 
-0.0417 -0.0983 0.5667                     183 61 61 
0.2346 -0.3869 0.0140                     156 81 81 
0.0258 0.3377 0.4930                     168 86 86 
0.1486 0.1903 0.1062                     168 48 48 
0.5110 0.2026 0.2535                     94 94 94 
0.3759 0.2763 0.3027                     90 90 90 
0.2960 0.2026 0.4992                     100 100 100 
0.0013 0.4360 0.0877                     132 132 132 
0.2346 0.2026 0.1491                     98 98 98 
-0.0724 0.5035 0.2413                     102 102 102 
-0.0417 -0.1229 0.5790                     186 48 48 
0.5662 0.2026 0.2781                     99 99 99 
0.4250 0.2702 0.1123                     83 83 83 
-0.0049 0.3991 0.3641                     100 100 100 
0.0504 0.3009 0.0263                     130 130 130 
0.5048 0.2702 0.3395                     86 86 86 
0.1548 0.2640 0.4623                     83 83 83 
0.0013 0.4544 0.4562                     89 89 89 
0.1241 0.2640 0.3948                     84 84 84 
0.0750 0.1842 0.3948                     100 100 100 
0.1118 0.3562 0.6036                     106 106 106 
0.0627 0.4483 0.5483                     91 91 91 
0.3329 0.2026 0.1491                     94 94 94 
0.0934 0.1903 0.0632                     97 97 97 
0.2285 0.2702 0.4869                     85 85 85 
0.1057 0.1903 0.4746                     100 100 100 
0.5417 0.0061 0.0263                     152 72 72 
0.1548 0.2640 0.4439                     83 83 83 
0.0074 0.2088 0.1246                     108 108 108 
0.2469 0.2640 0.5360                     85 85 85 
0.2039 0.2518 0.5606                     82 82 82 
0.3267 0.2763 0.3150                     90 90 90 
-0.0049 0.5035 0.0632                     131 131 131 
0.1179 0.1903 0.2535                     100 100 100 
0.0013 0.3623 0.4378                     88 85 85 
0.0750 0.2763 0.0263                     61 61 61 
0.5847 -0.2580 0.5729                     192 77 77 
0.2346 0.2026 0.2720                     99 99 99 
0.0320 0.4544 0.5176                     90 90 90 
-0.0172 0.4544 0.4009                     94 94 94 
0.4618 0.2026 0.4746                     156 51 51 
0.3329 0.2088 0.0447                     99 99 99 
0.1179 0.1903 0.1369                     100 100 100 
-0.0233 0.3807 0.2842                     91 91 91 
0.4803 0.2026 0.1737                     94 94 94 
0.2223 0.2088 0.5422                     100 100 100 
-0.0540 0.5281 0.4071                     103 103 103 
0.0381 0.4237 0.5913                     86 86 86 
0.0074 0.5158 0.0570                     131 131 131 
0.2715 0.2026 0.4071                     97 97 97 
0.5233 0.0737 0.5176                     194 93 93 
0.0995 0.4360 -0.0044                     105 105 105 
0.4127 0.2763 0.2351                     92 92 92 
0.3267 0.2702 0.4623                     86 86 86 
0.0995 0.3930 0.5606                     99 99 99 
0.3697 0.1965 0.4316                     163 52 52 
0.2285 0.2640 0.0386                     86 86 86 
0.1057 0.2640 0.1614                     86 86 86 
0.3145 0.2088 0.0263                     97 97 97 
-0.0540 0.5342 0.2044                     103 103 103 
0.2408 -0.4054 0.5913                     172 77 77 
-0.0172 0.4667 0.5176                     85 85 85 
0.4987 0.2640 0.1553                     83 83 83 
0.0688 0.1842 0.2842                     100 100 100 
0.4127 0.2640 0.4746                     87 87 87 
0.6031 0.2026 0.2535                     85 85 85 
0.0135 0.1658 0.2597                     99 99 99 
0.0995 0.1781 0.0877                     161 71 71 
-0.0049 0.1719 0.1553                     116 116 116 
0.1057 0.2702 0.3027                     85 85 85 
-0.0294 0.3930 0.1737                     96 96 96 
0.0504 0.1842 0.4930                     168 75 75 
0.5355 0.0491 0.5422                     175 74 74 
0.0074 0.3623 0.1000                     161 72 72 
0.3759 0.2640 0.4992                     87 87 87 
-0.0110 0.4421 0.4071                     94 94 94 
0.3452 0.2763 0.1184                     85 85 85 
0.0504 0.2825 0.0447                     164 49 49 
0.4066 0.2763 0.1553                     85 85 85 
-0.0356 0.5097 0.3641                     99 99 99 
-0.0602 0.4606 0.1860                     104 104 104 
0.3574 0.2026 0.1553                     94 94 94 
-0.0172 0.3869 0.1123                     94 94 94 
0.1916 0.2763 0.3886                     85 85 85 
0.4311 0.2702 0.4378                     86 86 86 
0.0320 0.1719 0.0447                     140 59 59 
0.4066 0.2763 0.1737                     87 87 87 
0.0688 0.2395 0.4623                     80 80 80 
-0.0172 0.0368 0.5667                     166 127 127 
-0.0110 0.3869 0.4439                     85 85 85 
0.0013 0.3991 0.4009                     96 96 96 
0.4189 0.2456 0.5238                     96 96 96 
0.0320 0.4667 0.5974                     86 86 86 
0.1364 0.2702 0.1676                     86 86 86 
0.2899 0.2763 0.1246                     86 86 86 
0.2469 0.2026 0.2228                     97 97 97 
0.0074 0.2210 0.3395                     81 81 81 
0.5662 0.2026 0.2167                     98 98 98 
0.0381 0.2210 0.0754                     103 103 103 
0.1118 0.1965 0.0386                     97 97 97 
0.0750 0.3623 0.0079                     113 113 113 
-0.0294 0.4974 0.0570                     130 130 130 
0.1302 0.2026 0.0447                     97 97 97 
0.3452 0.2026 0.4132                     96 96 96 
0.5601 -0.1966 0.5483                     192 95 95 
0.5110 0.2026 0.2904                     94 94 94 
-0.0663 0.4790 0.2474                     102 102 102 
-0.0172 0.0675 0.0386                     158 50 50 
0.0074 0.4606 0.5606                     86 86 86 
-0.0540 -0.2150 0.0202                     181 46 46 
0.5478 0.2026 0.3088                     97 97 97 
0.0320 0.2088 0.0816                     123 123 123 
-0.0172 0.4237 0.2781                     105 105 105 
0.3083 0.2640 0.5299                     87 87 87 
0.0442 0.1719 0.5115                     172 62 62 
0.5662 -0.3071 0.5606                     195 69 69 
0.4680 0.2763 0.2106                     85 85 85 
0.0442 0.2395 0.4009                     81 81 81 
0.0135 0.3500 0.4623                     167 97 97 
-0.0110 0.0307 0.5483                     155 50 50 
0.0258 0.3991 0.5667                     85 85 85 
0.0811 0.3316 0.0079                     116 116 116 
0.2408 0.2702 0.4746                     85 85 85 
-0.0110 0.1903 0.3457                     91 91 91 
-0.0294 0.4974 0.1430                     115 115 115 
-0.0540 0.5281 0.4071                     103 103 103 
0.0013 0.2272 0.2351                     85 85 85 
0.0381 0.4114 0.5115                     89 89 89 
0.0074 0.4913 0.5790                     86 86 86 
0.2408 0.2210 0.0202                     100 100 100 
0.1241 0.4053 0.6159                     121 121 121 
0.1179 0.3500 0.0140                     73 73 73 
-0.0356 0.4114 0.3088                     94 94 94 
0.2530 0.2333 0.5790                     100 100 100 
0.1057 0.3807 0.0018                     104 104 104 
0.0442 0.3807 0.5852                     85 85 85 
0.0197 0.1719 0.3272                     100 100 100 
-0.0110 0.3684 0.3518                     171 74 74 
0.0811 0.1842 0.1553                     100 100 100 
-0.0049 0.1596 0.2658                     98 98 98 
0.0934 0.3132 0.5606                     72 72 72 
0.4680 0.2640 0.1062                     82 82 82 
0.3697 0.2640 0.0632                     82 82 82 
-0.0356 0.5097 0.1553                     113 113 113 
0.0320 0.2518 0.2290                     86 86 86 
0.0442 0.2518 0.2290                     86 86 86 
0.0934 0.1842 0.3641                     100 100 100 
0.1732 0.2763 0.1676                     86 86 86 
0.2285 0.2026 0.2842                     99 99 99 
0.5417 0.2026 0.1860                     96 96 96 
0.1057 0.4176 0.5606                     98 98 98 
0.0565 0.2088 0.5053                     81 81 81 
0.0688 0.1842 0.2658                     100 100 100 
-0.0294 0.5281 0.4992                     104 104 104 
0.0135 0.2026 0.1000                     126 126 126 
0.0320 0.2456 0.2044                     86 86 86 
0.4618 0.2026 0.3702                     96 96 96 
0.4434 0.2026 0.0816                     99 99 99 
0.0013 0.4790 0.0263                     130 130 130 
0.3206 0.2026 0.4501                     97 97 97 
0.3636 0.2026 0.1921                     94 94 94 
0.5785 0.2456 0.1737                     78 78 78 
-0.0724 0.5281 0.3334                     102 102 102 
0.5171 0.1228 0.0447                     190 106 106 
0.0074 0.0859 0.5483                     157 100 100 
0.1548 0.1965 0.2351                     100 100 100 
0.0995 0.1903 0.4992                     100 100 100 
0.0258 0.1965 0.4501                     83 83 83 
0.0565 0.1781 0.1798                     100 100 100 
0.4496 0.2763 0.1430                     85 85 85 
0.1118 0.2579 0.0754                     87 87 87 
0.1978 0.2702 0.4255                     85 85 85 
-0.0110 0.4667 0.5360                     85 85 85 
0.3697 0.2640 0.4992                     87 87 87 
0.2285 0.2763 0.3518                     86 86 86 
0.0442 0.4360 0.5238                     90 90 90 
-0.0294 0.4913 0.4992                     83 83 83 
0.3513 0.1903 0.1000                     177 83 83 
0.1671 0.2702 0.4439                     84 84 84 
0.4926 0.2026 0.2474                     94 94 94 
0.0381 0.3562 0.5729                     82 82 82 
0.4004 0.2640 0.4685                     87 87 87 
0.5417 -0.0307 0.5483                     171 106 106 
0.2653 0.2702 0.0754                     85 85 85 
0.0135 0.4114 0.4685                     89 89 89 
0.0258 0.2395 0.1430                     88 88 88 
0.4987 0.2702 0.2044                     85 85 85 
0.1302 0.2702 0.3150                     85 85 85 
-0.0049 0.2210 0.2290                     85 85 85 
0.1732 0.1965 0.4194                     174 53 53 
-0.0602 0.4974 0.3457                     97 97 97 
0.2469 0.2702 0.4869                     85 85 85 
0.0258 0.3869 0.0202                     130 130 130 
0.0135 0.1781 0.4194                     87 87 87 
0.5171 0.2026 0.3886                     99 99 99 
0.0013 0.3869 0.4808                     79 79 79 
0.2162 0.2026 0.4808                     100 100 100 
0.4803 0.2702 0.1491                     83 83 83 
0.5785 0.2456 0.1860                     79 79 79 
0.3329 0.2640 0.0693                     83 83 83 
0.0688 0.2579 0.2044                     86 86 86 
-0.0172 0.1719 0.2720                     101 101 101 
0.0197 0.1719 0.2904                     100 100 100 
-0.0110 0.4360 0.0570                     130 130 130 
0.1732 0.2763 0.3395                     85 85 85 
0.0995 0.4606 0.0202                     119 119 119 
0.2530 0.2763 0.2965                     90 90 90 
0.1241 0.2640 0.1307                     86 86 86 
0.2162 0.1965 0.3211                     172 67 67 
0.1916 0.2702 0.4255                     85 85 85 
-0.0172 0.1719 0.2720                     101 101 101 
0.0688 0.2640 0.2474                     86 86 86 
0.5171 0.2640 0.2904                     86 86 86 
0.2408 0.2763 0.4562                     85 85 85 
0.5110 0.2026 0.3702                     97 97 97 
0.4311 0.2763 0.1737                     85 85 85 
-0.0602 0.4483 0.2658                     99 99 99 
0.5355 0.0430 0.0386                     195 79 79 
0.0013 0.0675 0.5606                     185 62 62 
0.4434 0.2702 0.4071                     86 86 86 
0.3636 0.2026 0.2658                     94 94 94 
0.5417 -0.0000 0.0263                     149 57 57 
-0.0110 -0.4054 0.0263                     169 51 51 
0.1732 0.2026 0.0877                     100 100 100 
0.2408 0.2026 0.2597                     97 97 97 
-0.0479 -0.1167 0.0263                     187 93 93 
0.2653 0.2763 0.3334                     90 90 90 
-0.0417 0.4544 0.4378                     89 89 89 
0.2592 0.2763 0.1430                     89 89 89 
-0.0540 0.4851 0.3825                     94 94 94 
0.0013 0.4913 0.4869                     90 90 90 
0.3759 0.2763 0.2167                     92 92 92 
-0.0724 -0.3562 0.0140                     157 64 64 
0.1302 -0.4115 0.5729                     170 46 46 
0.4803 0.2026 0.2167                     94 94 94 
-0.0233 0.4728 0.1246                     118 118 118 
0.1548 0.1965 0.2228                     100 100 100 
0.2653 0.2763 0.4071                     86 86 86 
-0.0110 0.4053 0.2044                     108 108 108 
0.5294 0.2026 0.2351                     94 94 94 
0.0381 0.1719 0.3211                     100 100 100 
0.5110 -0.4115 0.5667                     169 49 49 
0.5171 0.1719 0.5176                     169 61 61 
0.4803 0.2088 0.4808                     100 100 100 
0.2469 0.2026 0.2842                     97 97 97 
0.5048 0.2026 0.2351                     92 92 92 
0.0504 0.1658 0.0570                     167 82 82 
0.1302 0.3562 0.5667                     88 88 88 
0.2469 0.2763 0.3702                     87 87 87 
0.1671 0.1965 0.2597                     100 100 100 
0.5417 0.2026 0.2228                     94 94 94 
0.0381 0.2088 0.5545                     137 44 44 
-0.0294 0.5097 0.4194                     93 93 93 
-0.0294 0.4728 0.2965                     104 104 104 
-0.0172 0.5035 0.5422                     85 85 85 
0.4127 0.2763 0.1921                     89 89 89 
0.2101 0.2026 0.0939                     97 97 97 
0.0013 0.4790 0.0263                     130 130 130 
-0.0233 0.4298 0.2474                     106 106 106 
0.5233 0.2026 0.2474                     94 94 94 
0.5662 0.2579 0.2228                     83 83 83 
0.2223 0.2026 0.1307                     99 99 99 
-0.0602 0.4606 0.3027                     99 99 99 
-0.0356 0.4114 0.2720                     94 94 94 
0.4864 0.2763 0.2781                     86 86 86 
0.0135 0.2395 0.2965                     83 83 83 
0.1118 0.3807 0.0018                     101 101 101 
-0.0233 0.4237 0.4623                     82 82 82 
0.3267 0.2026 0.1062                     167 46 46 
0.4864 0.2640 0.4132                     88 88 88 
0.3882 0.2026 0.2351                     94 94 94 
-0.0049 0.4053 0.3579                     100 100 100 
-0.0417 -0.0737 0.0325                     172 64 64 
-0.0479 0.5220 0.3027                     104 104 104 
-0.0110 0.0614 0.0263                     161 47 47 
-0.0356 -0.0000 0.0263                     181 52 52 
0.2530 0.2026 0.0509                     99 99 99 
-0.0172 -0.4054 0.0079                     166 70 70 
0.0381 0.3991 0.0570                     131 131 131 
0.0504 0.2579 0.2044                     86 86 86 
-0.0356 0.5220 0.1369                     116 116 116 
-0.0602 0.4544 0.2535                     100 100 100 
0.1548 0.2579 0.5238                     81 81 81 
0.0934 -0.3992 0.0202                     157 52 52 
0.1916 0.1965 0.4378                     163 46 46 
0.1425 0.2333 0.5606                     78 78 78 
-0.0233 0.4483 0.2965                     104 104 104 
0.0381 0.4237 0.5913                     86 86 86 
0.2838 0.2579 0.5483                     87 87 87 
0.2592 0.2763 0.3088                     90 90 90 
0.0811 0.2456 0.4746                     80 80 80 
0.0013 0.4544 0.0386                     130 130 130 
-0.0110 0.3991 0.2720                     93 93 93 
0.0565 0.3930 0.5422                     88 88 88 
0.5662 -0.0860 0.5545                     193 49 49 
-0.0049 0.1842 0.3395                     92 92 92 
0.1179 0.1903 0.1369                     100 100 100 
0.2408 0.2026 0.1000                     97 97 97 
-0.0663 0.4851 0.3088                     100 100 100 
0.5417 0.2579 0.3518                     88 88 88 
0.4680 0.2702 0.3518                     86 86 86 
0.0258 0.2210 0.4194                     77 77 77 
0.2162 -0.4115 0.5729                     168 51 51 
-0.0417 0.4360 0.3641                     94 94 94 
0.0258 0.3377 0.4808                     171 63 63 
0.0565 0.4728 0.6159                     96 96 96 
0.1732 0.2640 0.5115                     82 82 82 
0.1057 0.3684 0.5606                     101 101 101 
0.3329 0.2088 0.0325                     98 98 98 
0.0320 0.3869 0.0632                     131 131 131 
0.0504 0.1781 0.3702                     100 100 100 
0.0135 0.3623 0.4562                     142 62 62 
0.2776 0.2333 0.0202                     94 94 94 
0.2469 0.2026 0.2351                     97 97 97 
0.4250 0.2395 0.0447                     67 67 67 
0.5294 0.2640 0.3518                     87 87 87 
0.0074 0.4483 0.5545                     85 85 85 
0.0074 0.4421 0.4685                     89 89 89 
0.0197 0.1903 0.0877                     127 127 127 
-0.0110 0.2026 0.2658                     89 89 89 
0.6031 0.2088 0.2413                     98 90 90 
0.0750 0.1842 0.1860                     100 100 100 
-0.0724 0.5281 0.1614                     110 110 110 
0.5601 -0.1536 0.5483                     189 79 79 
0.5601 0.2026 0.2044                     98 98 98 
0.0565 0.4667 0.0018                     115 115 115 
0.0381 0.3807 0.5790                     85 85 85 
-0.0417 0.5220 0.2167                     106 106 106 
0.0442 0.2395 0.1123                     89 89 89 
0.0934 0.3439 0.0018                     110 110 110 
0.1855 0.2088 0.0202                     101 101 101 
0.0565 0.4790 0.6097                     94 94 94 
0.2346 0.2763 0.3764                     85 85 85 
0.1732 0.1965 0.4009                     100 100 100 
0.1671 0.1965 0.2167                     100 100 100 
-0.0479 0.4237 0.2167                     97 97 97 
0.1118 0.4176 0.5667                     97 97 97 
0.5601 -0.0737 0.5545                     193 70 70 
0.0135 0.1658 0.3764                     100 100 100 
0.0934 0.1903 0.1860                     100 100 100 
0.4127 0.2026 0.1000                     97 97 97 
0.2162 0.1965 0.2597                     172 63 63 
0.3390 0.2702 0.4685                     86 86 86 
0.0381 0.3807 0.5053                     89 89 89 
0.1057 0.1903 0.1614                     100 100 100 
0.0320 0.3746 0.4869                     89 89 89 
-0.0356 0.4176 0.3518                     92 92 92 
0.1671 0.2149 0.5729                     98 98 98 
0.3145 -0.3869 0.5729                     153 60 60 
0.0995 0.1903 0.3334                     100 100 100 
0.2715 0.2333 0.5667                     99 99 99 
0.1794 0.2763 0.3395                     85 85 85 
0.2469 0.2026 0.0447                     99 99 99 
0.2408 0.2026 0.2290                     97 97 97 
0.4496 0.2579 0.0693                     79 79 79 
0.0995 0.3869 0.0018                     106 106 106 
0.5355 0.2518 0.1246                     79 79 79 
0.0442 0.2395 0.1246                     88 88 88 
0.4189 0.2763 0.1614                     85 85 85 
0.1118 0.4298 0.5667                     97 97 97 
0.5662 0.2149 0.4071                     126 126 126 
-0.0110 -0.4054 0.0079                     136 79 79 
0.0381 0.4421 0.5238                     90 90 90 
-0.0356 -0.0737 0.5729                     188 49 49 
-0.0172 0.5220 0.5238                     104 104 104 
0.5233 0.2026 0.2106                     94 94 94 
0.0750 0.2825 0.5667                     119 119 119 
0.0811 0.3500 0.5974                     96 96 96 
0.0872 0.1842 0.3579                     100 100 100 
0.0197 0.3930 0.5545                     83 83 83 
0.0565 0.3562 0.0140                     117 117 117 
0.5662 0.2026 0.2965                     99 99 99 
0.0013 0.3684 0.4194                     144 72 72 
0.3759 0.2026 0.2167                     94 94 94 
0.5171 0.0859 0.0325                     159 45 45 
0.4987 0.2026 0.4562                     100 100 100 
-0.0724 0.5281 0.2720                     105 105 105 
0.5233 0.2026 0.2842                     94 94 94 
0.3513 0.2763 0.1491                     88 88 88 
0.0442 0.4851 0.6097                     93 93 93 
0.3145 0.2763 0.3579                     89 89 89 
0.2162 0.1965 0.1983                     172 69 69 
0.2838 0.2088 0.5545                     100 100 100 
0.2715 0.2763 0.1246                     87 87 87 
0.4557 0.1965 0.4808                     162 53 53 
-0.0049 0.4298 0.3948                     96 96 96 
0.0074 0.1412 0.0386                     154 89 89 
0.3574 0.2026 0.4808                     100 100 100 
0.1364 0.1903 0.1860                     100 100 100 
-0.0049 0.3746 0.0877                     101 101 101 
0.0381 0.2518 0.2842                     85 85 85 
0.0872 0.3930 0.5606                     89 89 89 
0.4618 0.2026 0.1614                     94 94 94 
-0.0663 0.4790 0.2044                     103 103 103 
0.6031 0.2026 0.2658                     100 100 100 
0.5417 -0.0000 0.5483                     164 49 49 
0.5233 0.0614 0.5299                     195 59 59 
-0.0417 0.4913 0.2474                     106 106 106 
0.1364 0.4053 0.5852                     110 110 110 
0.1855 0.2456 0.0263                     92 92 92 
0.3206 0.2026 0.3027                     94 94 94 
0.1364 0.1903 0.2842                     100 100 100 
0.0197 0.1903 0.0939                     127 127 127 
0.0750 0.4606 0.5545                     94 94 94 
0.3267 -0.4115 0.5667                     172 44 44 
0.2039 0.1903 0.1184                     169 71 71 
-0.0294 -0.0492 0.5790                     183 92 92 
-0.0602 -0.2887 0.0202                     190 41 41 
0.0627 0.2518 0.5545                     193 52 52 
-0.0172 0.5281 0.0632                     104 104 104 
0.5171 0.1166 0.0325                     149 62 62 
0.1241 0.2579 0.0632                     87 87 87 
0.5355 0.0614 0.5422                     187 96 96 
-0.0479 0.4360 0.3579                     94 94 94 
-0.0172 0.4237 0.3027                     104 104 104 
0.1179 0.3254 0.5729                     95 95 95 
-0.0110 0.3684 0.2842                     170 59 59 
0.0811 0.2947 0.5729                     119 119 119 
0.2223 0.2763 0.2720                     87 87 87 
0.0197 0.1658 0.3886                     100 100 100 
-0.0294 -0.0246 0.5790                     174 71 71 
0.1118 0.4790 0.6036                     113 113 113 
-0.0049 0.3869 0.2965                     103 103 103 
0.0135 0.3807 0.0509                     129 129 129 
0.1302 0.1903 0.3088                     100 100 100 
-0.0602 -0.2088 0.5729                     179 64 64 
0.0135 0.4298 0.4808                     90 90 90 
0.2346 0.2763 0.2228                     89 89 89 
0.1241 0.4053 0.0079                     92 92 92 
0.3636 0.1903 0.4378                     164 52 52 
0.0381 0.2395 0.3764                     81 81 81 
0.5540 -0.1720 0.0263                     165 56 56 
0.5048 0.2026 0.1553                     96 96 96 
0.5540 -0.2518 0.0202                     166 77 77 
0.0197 0.5158 0.0325                     105 105 105 
-0.0110 0.4606 0.4132                     93 93 93 
0.0135 0.2333 0.2106                     86 86 86 
0.1978 0.2026 0.3395                     99 99 99 
0.2346 0.2763 0.1123                     86 86 86 
0.5355 0.2518 0.1246                     79 79 79 
0.0442 0.2395 0.5422                     193 74 74 
0.0074 0.2333 0.2290                     85 85 85 
0.1671 0.1965 0.4562                     100 100 100 
0.5908 0.2026 0.1983                     98 98 98 
0.0258 0.3991 0.5606                     84 84 84 
0.5662 0.2456 0.3641                     91 91 91 
0.0442 0.2518 0.1860                     87 87 87 
0.0258 0.1719 0.3334                     100 100 100 
0.0013 0.4544 0.0754                     132 132 132 
0.2162 0.2088 0.5545                     100 100 100 
-0.0356 0.4298 0.3702                     91 91 91 
0.1732 0.2026 0.0754                     100 100 100 
0.0627 0.4483 0.0018                     113 113 113 
0.5233 0.2640 0.3764                     88 88 88 
0.0135 0.3807 0.4316                     94 94 94 
0.2838 0.2763 0.2106                     91 91 91 
0.0197 0.2395 0.1983                     86 86 86 
0.0381 0.1719 0.3886                     100 100 100 
0.2592 0.2272 0.0202                     97 97 97 
-0.0602 -0.1536 0.0263                     161 111 111 
0.5294 0.0245 0.5422                     172 88 88 
0.3574 0.2272 0.5545                     97 97 97 
-0.0724 -0.3439 0.0263                     170 59 59 
0.2101 0.1903 0.2904                     170 71 71 
0.5540 0.2579 0.1614                     81 81 81 
-0.0110 0.5220 0.5299                     105 105 105 
0.0074 0.1965 0.1184                     126 126 126 
-0.0294 0.4913 0.0570                     130 130 130 
-0.0294 0.4176 0.3948                     90 90 90 
0.2162 0.1965 0.3334                     171 62 62 
0.3759 0.2640 0.4808                     86 86 86 
-0.0540 0.5342 0.1798                     104 104 104 
0.2838 0.2026 0.5176                     100 100 100 
-0.0049 0.4606 0.4501                     89 89 89 
0.2285 0.2763 0.3027                     87 87 87 
0.4741 0.2640 0.1246                     82 82 82 
0.0872 -0.4054 0.0079                     170 50 50 
0.2960 -0.3931 0.0079                     151 77 77 
0.2653 0.2763 0.3395                     89 89 89 
0.1548 0.2640 0.4992                     82 82 82 
-0.0479 0.5281 0.1307                     103 103 103 
0.0013 0.2272 0.3088                     82 82 82 
-0.0356 0.4667 0.2535                     105 105 105 
-0.0724 0.5281 0.2413                     105 105 105 
0.5540 0.2579 0.3088                     86 86 86 
0.4864 0.2026 0.2351                     93 93 93 
0.4803 0.2026 0.0447                     158 55 55 
0.5785 0.2333 0.3579                     95 95 95 
0.0872 0.2088 0.0386                     125 125 125 
0.3452 0.2763 0.3088                     91 91 91 
-0.0233 0.4606 0.3272                     102 102 102 
0.2653 0.2026 0.3088                     97 97 97 
0.5417 0.2579 0.1430                     80 80 80 
0.5478 -0.0983 0.5606                     152 49 49 
0.0504 0.1842 0.4501                     100 100 100 
-0.0110 0.1903 0.1983                     108 108 108 
0.5724 -0.1229 0.5422                     156 77 77 
-0.0356 0.4913 0.1860                     109 109 109 
0.1057 0.2026 0.5483                     95 95 95 
0.1794 0.1965 0.4930                     100 100 100 
0.5110 0.2702 0.2842                     86 86 86 
-0.0110 0.4483 0.3948                     96 96 96 
-0.0479 0.4298 0.2106                     99 99 99 
0.5417 -0.0860 0.0325                     160 56 56 
-0.0110 0.3807 0.3027                     155 63 63 
0.1609 0.1965 0.0509                     99 99 99 
-0.0110 0.3930 0.2351                     107 107 107 
0.0504 -0.4115 0.0079                     172 48 48 
0.0442 0.1781 0.4009                     100 100 100 
0.3759 0.2026 0.3088                     94 94 94 
0.2715 0.2640 0.0447                     83 83 83 
0.3452 0.2026 0.4623                     97 97 97 
-0.0233 0.4544 0.3334                     101 101 101 
0.0627 0.1842 0.3702                     100 100 100 
0.5478 0.2026 0.4132                     100 100 100 
-0.0049 0.2149 0.2842                     82 82 82 
0.4004 0.2640 0.4808                     87 87 87 
0.0504 0.1781 0.2290                     100 100 100 
0.3882 0.2026 0.1062                     97 97 97 
0.0565 0.2456 0.4255                     81 81 81 
0.0197 0.1965 0.0939                     127 127 127 
0.0381 0.5035 0.6097                     80 80 80 
-0.0417 0.5158 0.1921                     108 108 108 
0.3329 0.2518 0.5422                     88 88 88 
0.0442 0.4974 0.0325                     132 132 132 
-0.0233 0.3746 0.2965                     170 61 61 
0.2101 0.1965 0.2106                     171 63 63 
0.0872 0.3070 0.5913                     101 101 101 
0.5233 0.1044 0.5176                     164 55 55 
0.5847 0.2456 0.2597                     83 83 83 
0.0013 0.3623 0.4194                     156 110 110 
0.4926 0.2210 0.4930                     123 123 123 
0.3943 0.2579 0.5053                     89 89 89 
0.1486 -0.4054 0.0079                     169 51 51 
0.0995 0.1903 0.1307                     100 100 100 
0.2408 0.2026 0.1123                     98 98 98 
-0.0049 0.1903 0.3641                     90 90 90 
0.0013 0.1658 0.1614                     99 99 99 
0.0504 0.1842 0.4992                     168 84 84 
0.5724 0.2456 0.3641                     92 92 92 
0.0013 0.1105 0.5422                     191 51 51 
0.1916 0.2640 0.5115                     83 83 83 
0.0013 0.1781 0.1369                     123 123 123 
0.3390 0.2026 0.0754                     98 98 98 
0.4680 0.2640 0.4255                     87 87 87 
0.2592 0.2763 0.2535                     92 92 92 
-0.0663 -0.2518 0.0263                     179 76 76 
0.3145 0.1903 0.4194                     167 47 47 
0.2285 0.2763 0.1246                     86 86 86 
0.4987 0.1965 0.4992                     141 53 53 
0.0688 0.4913 0.0202                     119 119 119 
0.0442 0.3132 0.0325                     127 127 127 
0.3329 0.2763 0.2658                     92 92 92 
0.0074 0.3623 0.4439                     83 83 83 
0.0197 0.2149 0.4255                     65 65 65 
0.0934 0.4544 0.5667                     97 97 97 
-0.0479 0.4606 0.3886                     94 94 94 
0.3574 0.2763 0.2474                     94 94 94 
0.5601 0.2579 0.1798                     82 82 82 
0.4189 0.2026 0.2351                     94 94 94 
-0.0540 0.4544 0.2044                     102 102 102 
0.3513 0.2026 0.3579                     95 95 95 
0.5478 -0.0000 0.5422                     193 53 53 
0.2223 0.2026 0.2228                     99 99 99 
0.3329 0.2456 0.0325                     77 77 77 
0.3329 0.2026 0.0632                     100 100 100 
0.0135 0.4544 0.0632                     131 131 131 
0.0627 -0.3931 0.0140                     147 85 85 
0.1916 0.2026 0.0570                     99 99 99 
-0.0602 0.4974 0.3579                     97 97 97 
-0.0110 0.3991 0.2044                     108 108 108 
0.3329 0.2026 0.1246                     96 96 96 
-0.0172 -0.3931 0.0202                     152 54 54 
0.1794 0.2456 0.5667                     79 79 79 
-0.0294 0.5220 0.5238                     95 95 95 
0.0504 0.2210 0.4808                     66 66 66 
0.1179 0.1903 0.3088                     100 100 100 
0.1916 0.2763 0.1860                     86 86 86 
0.3083 0.2763 0.3518                     89 89 89 
0.1179 0.3500 0.5974                     128 128 128 
