ply
format ascii 1.0
comment VCGLIB generated
element vertex 909
property float x
property float y
property float z
property uchar red
property uchar green
property uchar blue
element face 0
property list uchar int vertex_indices
end_header
0.2247 0.1782 -0.0293                     100 100 100 
0.1203 0.2457 -0.0416                     86 86 86 
-0.1008 0.3686 0.3391                     87 87 87 
0.4335 0.0185 -0.0539                     163 74 74 
-0.1315 0.4791 0.3514                     88 88 88 
0.4151 0.2273 0.3637                     96 96 96 
-0.0824 0.4238 0.4435                     85 85 85 
0.3045 0.1782 0.3883                     99 99 99 
0.2800 0.2519 0.1733                     92 92 92 
0.0589 0.2396 0.3207                     85 85 85 
0.4765 0.2027 0.0321                     70 70 70 
-0.0762 0.4054 0.3514                     89 89 89 
0.2370 0.2519 0.1733                     92 92 92 
-0.0578 0.1905 -0.0048                     105 105 105 
-0.1438 -0.2394 0.4865                     175 92 92 
0.2308 0.2519 0.2470                     89 89 89 
-0.0394 0.2826 -0.0662                     130 130 130 
-0.0701 0.1413 0.1487                     99 99 99 
0.0220 0.2150 -0.0539                     96 96 96 
-0.0946 0.3501 0.0321                     67 67 67 
0.1326 0.1843 0.4865                     102 102 102 
0.2984 0.2273 -0.0416                     80 80 80 
0.2493 0.1659 0.3514                     172 47 47 
0.2800 0.2457 -0.0048                     85 85 85 
-0.0578 -0.4114 -0.0785                     157 89 89 
-0.1192 -0.0490 -0.0662                     180 51 51 
-0.0946 0.1413 0.1180                     103 103 103 
0.3475 0.2519 0.1856                     87 87 87 
-0.0578 0.2212 0.2347                     83 83 83 
0.1633 0.1782 0.1549                     97 97 97 
0.0282 0.1659 0.1119                     100 100 100 
-0.0271 0.2703 -0.0478                     180 46 46 
-0.0701 0.3563 0.3453                     94 94 94 
0.1449 0.1782 -0.0355                     99 99 99 
0.2124 0.1782 0.3575                     97 97 97 
0.4396 0.2396 0.0505                     82 82 82 
0.1572 0.2519 0.1917                     89 89 89 
-0.1253 0.3993 0.2654                     92 92 92 
0.4151 0.2519 0.1733                     86 86 86 
-0.1192 0.3870 0.1119                     96 96 96 
0.4028 0.1782 0.3391                     100 100 100 
0.4826 0.2335 0.1672                     85 85 85 
-0.0087 0.2396 0.1795                     85 85 85 
0.4704 0.2089 0.3146                     110 110 110 
-0.0516 0.2150 0.0321                     89 89 89 
-0.0824 0.1905 0.2409                     80 80 80 
0.2800 0.1843 0.4619                     83 83 83 
0.0896 0.2212 0.4742                     79 79 79 
-0.1069 0.4361 0.2716                     99 99 99 
0.2308 0.1905 0.4804                     107 107 107 
-0.0639 0.2150 0.0751                     87 87 87 
0.1572 0.1659 0.3330                     168 43 43 
0.2247 0.2519 0.0996                     91 91 91 
0.3844 0.2457 0.2531                     86 86 86 
-0.0394 0.2519 -0.0601                     193 74 74 
-0.0455 0.1475 0.2347                     100 100 100 
0.0896 0.2396 0.3698                     83 83 83 
0.3414 0.2457 0.2900                     86 86 86 
-0.0148 0.3808 -0.0908                     112 112 112 
-0.0639 0.1536 0.3330                     88 88 88 
0.4396 0.2089 0.3514                     113 113 113 
-0.0394 0.2273 0.0443                     88 88 88 
0.3168 0.2396 0.3760                     87 87 87 
0.4519 -0.1227 -0.0662                     162 81 81 
0.1326 0.1782 0.3453                     100 100 100 
-0.0885 0.4975 -0.0293                     132 132 132 
0.1633 0.1782 0.0321                     97 97 97 
0.4826 -0.2640 0.4681                     183 55 55 
-0.1438 0.4852 0.3268                     92 92 92 
0.3352 0.2396 0.3637                     87 87 87 
-0.1069 0.4545 0.4067                     83 83 83 
0.0405 0.1536 0.3453                     169 52 52 
-0.0394 0.1536 0.4312                     191 51 51 
0.3291 0.2457 0.0075                     83 83 83 
0.2247 0.2089 -0.0662                     89 89 89 
0.3537 0.1782 0.0935                     94 94 94 
-0.0885 0.3563 -0.0171                     116 116 116 
0.3045 0.1782 0.3760                     99 99 99 
0.1879 0.2519 -0.0048                     85 85 85 
0.0650 0.2396 0.3207                     85 85 85 
-0.0824 0.1475 0.2900                     89 89 89 
-0.0639 0.4177 0.4804                     86 86 86 
0.0773 0.1782 -0.0478                     99 99 99 
0.1326 0.2150 -0.0723                     94 94 94 
0.2124 0.1782 -0.0355                     99 99 99 
0.4519 -0.4237 0.4927                     174 88 88 
0.3045 0.1782 0.1180                     94 94 94 
0.1387 0.2396 0.4435                     83 83 83 
0.3537 0.2457 0.0014                     83 83 83 
-0.0701 0.3317 0.0136                     186 54 54 
0.2063 0.2457 0.3821                     86 86 86 
0.1510 0.2519 0.0259                     86 86 86 
0.0466 0.2457 0.1303                     86 86 86 
-0.1315 0.5037 -0.0048                     54 54 54 
0.1142 0.1720 0.3207                     171 40 40 
-0.1438 0.4484 0.1795                     101 101 101 
0.1756 0.1782 0.3821                     100 100 100 
0.0773 0.1720 0.2470                     100 100 100 
0.4335 0.0738 -0.0478                     170 53 53 
-0.0701 0.1352 -0.0478                     156 96 96 
0.1879 0.1782 0.3883                     99 99 99 
-0.0762 0.3563 0.4005                     75 75 75 
-0.0946 0.3931 0.2409                     102 102 102 
-0.1069 0.3624 0.1795                     92 92 92 
-0.1192 -0.1043 0.4742                     151 41 41 
0.0036 0.4361 -0.0662                     117 117 117 
0.3045 0.2273 0.4374                     93 93 93 
-0.0455 0.1413 -0.0478                     160 87 87 
0.4028 0.1782 0.3637                     100 100 100 
0.1019 0.1720 0.1119                     100 100 100 
0.4335 0.0983 0.4435                     154 54 54 
-0.0762 0.1843 0.2900                     71 71 71 
-0.1069 0.0247 -0.0601                     162 123 123 
0.2370 0.2519 0.2777                     88 88 88 
-0.0271 0.2396 -0.0662                     70 70 70 
0.1572 0.2457 -0.0293                     86 86 86 
0.1572 0.1782 0.2470                     97 97 97 
0.1694 0.2519 0.1917                     90 90 90 
0.2738 0.2027 0.4681                     101 101 101 
0.3291 0.2457 0.0198                     85 85 85 
0.0159 0.1720 0.4374                     99 99 99 
0.4581 0.1843 0.0136                     94 94 94 
0.4089 0.1782 0.3453                     100 100 100 
0.3230 0.2335 0.4067                     89 89 89 
0.4826 0.1782 0.2286                     99 99 99 
-0.0455 0.3071 0.4497                     79 79 79 
0.1817 0.1782 0.1917                     97 97 97 
0.0650 0.1720 0.1795                     100 100 100 
0.2124 0.2457 0.3698                     86 86 86 
0.0159 0.3440 0.4681                     101 101 101 
0.1203 0.2519 0.0873                     86 86 86 
-0.0946 0.3686 0.1180                     101 101 101 
0.4519 0.2396 0.1365                     85 85 85 
0.0159 0.3256 0.4681                     101 101 101 
0.0098 0.1782 0.4435                     93 93 93 
-0.0394 0.3931 0.5049                     88 88 88 
0.2738 0.2519 0.0566                     88 88 88 
0.4458 0.0185 0.4435                     180 65 65 
-0.0394 0.4484 -0.0601                     132 132 132 
0.2063 0.1843 -0.0601                     99 99 99 
0.4519 0.0124 -0.0662                     149 54 54 
0.3230 0.2519 0.2839                     86 86 86 
-0.0332 0.1598 -0.0355                     137 58 58 
0.3045 0.1782 0.2470                     94 94 94 
-0.0824 0.3808 -0.0416                     129 129 129 
-0.0885 0.0369 0.4619                     151 57 57 
0.0466 -0.4175 -0.0785                     146 83 83 
-0.0332 0.1536 0.2900                     100 100 100 
0.0220 0.3624 -0.0908                     105 105 105 
-0.1438 0.4484 0.1979                     100 100 100 
0.5072 0.2150 0.1917                     89 89 89 
-0.0087 0.1598 0.3268                     100 100 100 
-0.1253 0.5037 0.0505                     109 109 109 
0.1387 0.2519 0.0935                     86 86 86 
0.0835 0.1659 0.0075                     168 50 50 
0.0589 0.2457 0.0935                     86 86 86 
0.1817 0.2519 0.1303                     94 94 94 
-0.0946 0.3563 0.1058                     154 60 60 
0.1756 0.1782 -0.0293                     100 100 100 
-0.0701 0.1475 0.0505                     98 98 98 
-0.0271 0.3379 0.4988                     91 91 91 
0.0159 0.1598 0.2777                     100 100 100 
0.2616 0.1843 -0.0478                     99 99 99 
0.1080 0.1843 0.4681                     100 100 100 
0.1694 0.2519 0.2040                     90 90 90 
0.1080 0.2519 0.2102                     85 85 85 
-0.1438 -0.4052 0.4865                     143 60 60 
0.1694 0.1782 0.3268                     169 43 43 
-0.1315 0.3993 0.1610                     97 97 97 
0.0405 0.2273 0.4190                     81 81 81 
0.4212 0.2396 0.3084                     88 88 88 
0.3782 0.2457 0.2593                     86 86 86 
0.2677 0.1782 0.4067                     100 100 100 
0.4396 0.0615 0.4312                     195 74 74 
0.0036 0.2396 0.2654                     83 83 83 
-0.1131 0.3993 0.3514                     87 87 87 
-0.0332 0.4177 -0.0539                     132 132 132 
-0.0762 0.4054 0.3514                     89 89 89 
0.4028 0.2273 0.3637                     94 94 94 
0.1019 0.1782 0.4374                     100 100 100 
0.4704 0.1782 0.0935                     97 97 97 
0.2370 0.1782 0.4005                     100 100 100 
0.2493 0.1782 0.0136                     96 96 96 
0.1756 0.2519 0.3146                     86 86 86 
-0.1438 0.5098 0.1610                     102 102 102 
0.0528 0.2335 0.4251                     81 81 81 
-0.0148 0.2764 -0.0785                     112 112 112 
0.3107 0.2150 0.4435                     96 96 96 
-0.0701 0.3747 -0.0048                     130 130 130 
0.0528 0.1782 0.4497                     100 100 100 
0.2493 0.1659 0.0014                     169 45 45 
-0.0332 0.3440 0.4435                     89 89 89 
-0.0394 0.4423 0.4435                     89 89 89 
0.4765 0.2335 0.1242                     83 83 83 
0.4642 0.1782 0.1549                     95 95 95 
-0.0332 -0.4237 -0.0723                     144 48 48 
-0.0885 0.1413 0.1180                     101 101 101 
0.2738 -0.4359 0.4865                     168 57 57 
0.3352 0.1782 0.2409                     94 94 94 
0.3967 0.1905 -0.0416                     83 83 83 
-0.1560 0.5098 0.0812                     99 99 99 
-0.1008 0.0247 0.4681                     171 117 117 
-0.0578 0.2150 0.2777                     81 81 81 
-0.1192 0.5037 0.0321                     102 102 102 
0.1142 0.1782 0.4374                     100 100 100 
-0.0639 0.1536 -0.0539                     161 90 90 
0.3537 0.2457 0.3330                     86 86 86 
-0.1069 0.4115 0.1180                     107 107 107 
-0.0455 0.2273 0.2531                     82 82 82 
-0.0209 0.2335 0.0935                     87 87 87 
0.2247 0.1782 -0.0048                     96 96 96 
0.4212 0.1782 0.1487                     93 93 93 
0.0835 0.1782 -0.0232                     99 99 99 
0.4949 0.2212 0.1180                     81 81 81 
-0.1131 0.4423 0.1549                     104 104 104 
0.5011 0.2150 0.2409                     90 90 90 
0.4642 -0.1043 0.4558                     172 84 84 
0.1203 0.1782 0.3637                     100 100 100 
0.1572 0.1905 -0.0723                     102 102 102 
0.4335 0.0185 -0.0539                     163 74 74 
0.0343 0.3256 0.5111                     121 121 121 
0.1203 0.1782 -0.0232                     100 100 100 
0.1817 0.2457 0.3883                     85 85 85 
0.1203 0.1782 0.3637                     100 100 100 
0.4089 0.1720 -0.0478                     130 50 50 
0.2616 0.2519 0.3023                     86 86 86 
-0.0271 0.2826 -0.0723                     129 129 129 
-0.0578 0.2150 0.2593                     82 82 82 
0.0528 0.3501 0.4865                     105 105 105 
0.3782 0.2519 0.2531                     86 86 86 
-0.1008 0.3563 0.0075                     100 100 100 
-0.0578 0.1659 0.3575                     86 86 86 
0.4949 0.2150 0.2347                     88 88 88 
0.3598 -0.4298 0.4988                     168 69 69 
-0.0946 0.3563 -0.0109                     107 107 107 
-0.0455 0.3993 0.4251                     89 89 89 
0.0343 0.1966 0.4681                     88 88 88 
-0.0394 0.4054 0.5049                     87 87 87 
0.1510 0.2457 -0.0171                     86 86 86 
-0.0639 0.2212 0.0873                     87 87 87 
0.0405 0.1659 0.3453                     99 99 99 
0.0220 0.4484 -0.0908                     93 93 93 
-0.0578 0.1168 0.4558                     188 60 60 
-0.1253 -0.1473 0.4804                     168 103 103 
-0.0025 0.2335 0.2961                     83 83 83 
0.0466 0.3563 0.4742                     93 93 93 
0.0098 0.1598 0.2900                     100 100 100 
0.3291 0.1720 0.3575                     159 53 53 
-0.1376 0.4791 0.3268                     92 92 92 
0.1694 0.1782 0.2224                     97 97 97 
-0.1008 0.1659 0.1180                     103 103 103 
0.4151 0.1782 0.0075                     99 99 99 
0.3107 0.2027 0.4497                     102 102 102 
0.4642 0.1782 0.1733                     95 95 95 
-0.0885 0.4975 -0.0293                     132 132 132 
0.4642 0.1782 0.1856                     96 96 96 
0.4212 0.1352 0.4251                     187 53 53 
0.3537 -0.4421 0.4742                     160 50 50 
0.4274 0.1598 -0.0478                     149 61 61 
-0.0455 0.1536 0.3575                     84 84 84 
-0.1069 0.4791 0.0136                     125 125 125 
-0.0946 0.3501 0.1610                     172 73 73 
0.2677 0.2335 -0.0416                     81 81 81 
0.0712 0.2457 0.2839                     85 85 85 
0.0098 0.3624 0.4681                     100 100 100 
0.1817 0.1782 -0.0416                     99 99 99 
0.4704 -0.1841 0.4558                     191 53 53 
-0.0762 0.1291 -0.0539                     168 66 66 
0.2616 0.2519 0.1672                     92 92 92 
0.2063 0.2519 0.0812                     90 90 90 
0.2554 0.2273 0.4374                     88 88 88 
0.0957 0.1720 0.1733                     100 100 100 
0.2186 0.1659 0.3330                     168 46 46 
0.0528 0.2335 0.4190                     82 82 82 
0.4642 0.2150 0.3084                     99 99 99 
-0.1008 0.1598 0.1549                     102 102 102 
0.2186 0.2396 0.4128                     86 86 86 
0.2063 0.2519 0.2347                     90 90 90 
-0.0332 0.1598 0.4190                     152 56 56 
-0.1069 0.4115 -0.0232                     130 130 130 
0.3107 0.2457 0.3637                     86 86 86 
0.3352 0.2089 -0.0478                     65 65 65 
0.2001 0.1782 0.3023                     97 97 97 
-0.1499 0.4607 0.2040                     100 100 100 
-0.0148 0.1598 0.1058                     100 100 100 
0.5072 0.1782 0.1856                     99 99 99 
-0.0455 0.2150 0.2777                     81 81 81 
-0.0148 0.1598 0.3514                     100 100 100 
0.4765 0.1782 0.0628                     98 98 98 
0.2861 0.2519 0.1303                     92 92 92 
-0.0701 0.3563 0.3514                     93 93 93 
0.1264 0.1720 0.1672                     171 66 66 
0.2984 0.2212 0.4435                     93 93 93 
0.4826 -0.2640 0.4804                     152 49 49 
0.0282 0.2335 -0.0171                     87 87 87 
0.2738 0.1782 0.0014                     96 96 96 
-0.0332 0.2212 0.3146                     81 81 81 
0.1264 0.2396 0.4312                     83 83 83 
0.0835 0.1720 0.2163                     100 100 100 
-0.0087 0.2335 0.0689                     87 87 87 
0.1264 0.2027 -0.0723                     101 101 101 
-0.0946 0.3686 0.1856                     105 105 105 
0.0466 0.2457 0.0996                     86 86 86 
0.4458 -0.0368 -0.0601                     157 63 63 
0.4888 0.1843 0.3023                     118 118 118 
0.1203 0.1659 0.1180                     168 60 60 
-0.0332 0.2949 -0.0539                     130 130 130 
-0.1253 0.3993 0.0689                     100 100 100 
0.3721 -0.4298 -0.0723                     146 57 57 
-0.1131 0.5037 0.4190                     99 105 105 
0.0098 0.2027 0.4374                     63 63 63 
0.0712 0.1720 0.1058                     100 100 100 
-0.0332 0.2089 0.3698                     79 79 79 
0.1694 0.2519 0.1487                     92 92 92 
-0.0148 0.2212 0.0136                     88 88 88 
0.2431 0.1782 0.3207                     97 97 97 
-0.1069 0.3808 0.0075                     104 104 104 
-0.0885 0.1352 0.1979                     98 98 98 
-0.1131 -0.0736 0.4742                     155 91 91 
0.0835 0.2519 0.1672                     85 85 85 
-0.1131 -0.0183 -0.0662                     179 77 77 
-0.0516 0.1536 0.3637                     90 90 90 
0.2800 0.1782 0.1426                     94 94 94 
-0.1376 0.4914 0.3575                     89 89 89 
-0.0946 0.3501 0.0382                     94 94 94 
-0.0087 0.2642 0.4619                     88 88 88 
-0.0824 0.4545 -0.0171                     131 131 131 
0.4458 0.2212 0.3330                     101 101 101 
-0.0701 0.3379 0.3391                     98 80 80 
0.4396 0.0308 0.4435                     177 71 71 
0.4335 0.0799 -0.0478                     178 72 72 
-0.0578 0.4668 0.5049                     88 88 88 
0.1572 0.2519 0.3698                     85 85 85 
0.2984 0.2519 0.1180                     92 92 92 
0.0773 0.2519 0.0751                     86 86 86 
-0.0885 0.3501 0.3637                     82 82 82 
-0.0762 0.0738 0.4619                     174 92 92 
0.1203 0.1659 0.1917                     169 64 64 
-0.1560 0.4914 0.2040                     101 101 101 
0.2738 0.2519 0.1365                     93 93 93 
0.4212 0.1782 0.0382                     97 97 97 
0.0282 0.3747 -0.0723                     117 117 117 
0.2923 0.1782 0.1365                     94 94 94 
0.2738 0.2519 0.1979                     91 91 91 
0.2431 0.2335 0.4374                     87 87 87 
0.1203 0.1659 0.1672                     168 57 57 
-0.1376 -0.1903 -0.0723                     166 105 105 
0.0036 0.2335 0.0566                     87 87 87 
-0.1499 0.5098 0.2102                     100 100 100 
0.4704 0.2150 0.3023                     98 98 98 
0.4335 0.1598 0.4251                     163 65 65 
-0.1069 0.4423 0.0689                     112 112 112 
-0.0701 -0.4237 -0.0723                     149 56 56 
-0.0885 0.2027 0.1487                     85 85 85 
0.4396 0.2335 0.2961                     89 89 89 
0.4704 0.1782 0.1856                     96 96 96 
0.3045 0.2519 0.2163                     90 90 90 
0.0220 0.2457 0.1365                     86 86 86 
0.4396 0.2396 0.0382                     81 81 81 
-0.0578 0.3747 -0.0293                     131 131 131 
0.3230 0.1720 0.3698                     158 47 47 
-0.1376 0.4484 0.2654                     96 96 96 
0.2677 0.2519 0.2347                     90 90 90 
0.0405 0.3317 0.5111                     129 129 129 
0.4704 0.1782 0.0628                     99 99 99 
-0.0885 0.3563 0.0873                     164 48 48 
-0.0209 0.2273 0.0321                     88 88 88 
0.1449 0.2457 0.4128                     85 85 85 
0.3598 0.2396 0.0014                     82 82 82 
0.2554 0.2089 -0.0662                     83 83 83 
0.2677 0.2519 0.0689                     89 89 89 
0.2247 0.1843 -0.0539                     99 99 99 
-0.1069 0.3870 0.3453                     87 87 87 
0.4581 -0.1780 -0.0723                     183 45 45 
-0.1315 0.4975 0.1487                     106 106 106 
0.0343 0.2457 0.2409                     85 85 85 
-0.0639 0.1475 0.2470                     100 100 100 
0.3168 0.1782 0.2716                     96 96 96 
0.2063 0.2519 0.2593                     89 89 89 
0.4089 -0.4359 0.4804                     167 51 51 
0.3905 0.1966 0.4128                     121 121 121 
0.2308 0.2089 0.4742                     99 99 99 
-0.1253 0.4914 0.0873                     86 86 86 
0.0896 0.2457 0.0014                     86 86 86 
0.0957 0.1782 0.0505                     100 100 100 
0.0466 0.3686 0.4927                     114 114 114 
0.3414 0.2519 0.1119                     88 88 88 
0.4949 0.1782 0.2347                     100 100 100 
0.1080 0.2519 0.2716                     85 85 85 
-0.0946 0.3501 0.1979                     164 55 55 
0.3967 0.2457 0.0689                     83 83 83 
0.2554 0.1782 0.2531                     94 94 94 
0.0343 0.4177 -0.0723                     130 130 130 
-0.0025 0.2212 0.3944                     80 80 80 
-0.1376 0.4361 0.0505                     108 108 108 
0.2677 0.1843 0.4374                     100 100 100 
0.1326 0.1782 -0.0601                     99 99 99 
0.0220 0.2396 0.0136                     87 87 87 
0.4028 0.1659 -0.0539                     188 113 113 
0.1264 0.1782 0.3760                     100 100 100 
0.3782 0.1782 0.2040                     94 94 94 
0.0712 0.2519 0.2347                     85 85 85 
0.2738 0.1659 0.0014                     167 46 46 
0.3905 0.2089 0.4005                     115 115 115 
-0.0455 0.3563 -0.0355                     131 131 131 
0.1633 0.1782 -0.0171                     99 99 99 
0.2738 0.1782 0.1180                     94 94 94 
-0.0824 0.3870 0.0198                     118 118 118 
0.5011 0.2027 0.2716                     102 102 102 
0.4765 -0.1105 0.4497                     150 43 43 
-0.0332 0.3563 0.4988                     88 88 88 
-0.0578 0.3993 -0.0785                     130 130 130 
0.1019 0.2519 0.2409                     85 85 85 
0.1879 0.2519 -0.0171                     85 85 85 
-0.0885 0.1966 0.1795                     83 83 83 
-0.1192 0.3931 0.0689                     99 99 99 
0.4028 0.1536 -0.0478                     183 58 58 
0.1019 0.2519 0.0751                     86 86 86 
0.3967 0.2396 0.0075                     81 81 81 
0.1694 0.1782 0.3268                     169 43 43 
-0.1192 0.4423 0.3760                     82 82 82 
0.4089 0.1782 0.2777                     97 97 97 
0.1264 0.2519 -0.0109                     86 86 86 
0.4581 0.2396 0.1119                     83 83 83 
-0.1192 -0.1412 0.4804                     148 38 38 
-0.0885 0.3870 0.3023                     96 96 96 
0.0098 0.2396 0.0505                     87 87 87 
0.3844 0.2519 0.1487                     85 85 85 
-0.0394 0.4177 -0.0908                     122 122 122 
-0.0455 0.1475 0.1917                     100 100 100 
0.3967 0.2457 0.2531                     86 86 86 
0.1449 0.1782 0.0075                     151 42 42 
0.1940 0.1782 0.1672                     96 96 96 
-0.1192 0.4361 0.3821                     82 82 82 
0.2800 0.1782 0.1856                     94 94 94 
-0.1069 0.3563 0.0628                     95 95 95 
-0.0087 0.2273 0.0075                     88 88 88 
0.2124 0.1843 -0.0662                     99 99 99 
0.1633 0.1782 0.1856                     97 97 97 
-0.0762 0.3686 0.3207                     95 95 95 
-0.1315 0.4423 0.0075                     118 118 118 
0.2370 0.2089 0.4742                     100 100 100 
0.1326 0.1720 0.3023                     173 74 74 
0.0589 0.2335 -0.0416                     87 87 87 
0.3230 0.1782 0.4005                     99 99 99 
-0.0639 0.4054 0.4681                     86 86 86 
0.1264 0.2519 0.3391                     85 85 85 
0.3721 0.2519 0.0873                     85 85 85 
-0.1253 0.4054 0.0443                     103 103 103 
0.0405 0.2212 -0.0601                     93 93 93 
0.3230 -0.4237 -0.0723                     156 49 49 
0.2001 0.2519 0.2961                     87 87 87 
0.3168 0.1720 -0.0109                     170 53 53 
0.0650 -0.4359 -0.0846                     172 48 48 
-0.1131 0.3993 0.3637                     84 84 84 
0.3537 0.1782 0.2347                     94 94 94 
-0.0025 0.2396 0.2470                     84 84 84 
0.4396 0.1782 0.3146                     99 99 99 
0.0712 0.2519 0.1119                     86 86 86 
0.3045 0.2212 0.4374                     93 93 93 
0.3844 0.1782 0.1365                     94 94 94 
0.4581 0.0369 0.4435                     193 47 47 
-0.1069 0.4730 -0.0478                     130 130 130 
0.0159 0.3931 -0.0723                     117 117 117 
-0.0946 0.3501 0.2900                     85 85 85 
-0.1376 0.4238 0.1610                     99 99 99 
0.0528 0.1659 0.3514                     184 118 118 
-0.1438 -0.1719 -0.0723                     192 107 107 
0.4089 0.1782 0.3084                     97 97 97 
-0.1499 0.4730 0.0628                     108 108 108 
0.0159 0.4545 0.5295                     105 105 105 
0.2800 0.1782 0.4067                     100 100 100 
-0.0271 0.2457 0.4435                     189 106 106 
0.3537 0.1782 0.3637                     155 52 52 
-0.0209 -0.4359 -0.0846                     172 48 48 
-0.0885 -0.4298 -0.0662                     169 52 52 
0.4519 0.2027 0.0014                     64 64 64 
0.2001 0.1782 0.2716                     97 97 97 
-0.0824 0.3931 0.3084                     96 96 96 
-0.1192 0.5037 0.3330                     103 103 103 
0.2616 0.1782 0.0812                     94 94 94 
0.2124 0.1659 0.3453                     167 46 46 
-0.0332 0.2273 0.1119                     86 86 86 
0.0650 0.2396 0.3514                     83 83 83 
0.0466 0.1782 0.4497                     100 100 100 
-0.1253 0.4975 0.2163                     103 103 103 
-0.0516 0.2212 0.1610                     85 85 85 
0.1510 0.2519 0.3391                     85 85 85 
0.0098 0.1598 0.2224                     100 100 100 
0.4274 0.1229 -0.0478                     187 101 101 
-0.0578 0.2212 0.0996                     86 86 86 
0.1203 0.1966 0.4865                     100 100 100 
-0.0701 0.3317 -0.0171                     96 96 96 
0.1080 0.2150 0.4804                     92 92 92 
0.3291 0.2273 0.4128                     91 91 91 
0.2370 0.1782 0.0014                     168 67 67 
0.4151 0.2396 0.2716                     87 87 87 
0.2493 0.2519 0.1242                     92 92 92 
0.4028 0.1843 0.3883                     100 100 100 
0.2738 0.2396 0.4067                     87 87 87 
0.0098 0.1475 0.3575                     176 72 72 
0.1879 0.1782 0.0505                     97 97 97 
0.0773 0.2519 0.1549                     86 86 86 
0.0589 0.2027 0.4742                     90 90 90 
0.3045 0.1782 0.2163                     94 94 94 
0.4888 -0.1412 0.4681                     193 45 45 
-0.0271 0.1536 0.2716                     100 100 100 
-0.1438 0.4300 0.2040                     99 99 99 
-0.0946 0.3440 0.0136                     97 97 97 
0.0405 0.2457 0.1979                     85 85 85 
0.0159 0.2089 0.4435                     70 70 70 
0.0650 0.2519 0.1549                     86 86 86 
-0.1069 0.3870 -0.0048                     117 117 117 
-0.1069 0.4730 0.0014                     130 130 130 
0.3844 0.2212 -0.0293                     67 67 67 
0.4765 0.1782 0.0751                     99 99 99 
-0.0516 0.3194 0.4312                     78 78 78 
0.0036 0.1598 0.3391                     100 100 100 
0.4519 0.1782 0.3146                     100 100 100 
-0.1376 0.4177 0.1856                     97 97 97 
0.0773 0.2027 -0.0723                     105 105 105 
0.4642 0.1782 0.2163                     97 97 97 
0.1756 0.1782 0.3268                     169 43 43 
0.2738 0.2212 0.4435                     91 91 91 
-0.0885 0.3440 0.0075                     88 88 88 
0.3721 0.1720 -0.0355                     197 94 94 
0.4274 0.1843 -0.0232                     93 93 93 
0.4335 0.0738 -0.0478                     170 53 53 
0.3352 0.2519 0.2593                     86 86 86 
-0.1008 0.0369 -0.0539                     162 52 52 
0.2308 0.2519 0.2347                     90 90 90 
0.3475 0.2335 0.3944                     94 94 94 
-0.0946 0.1843 0.1180                     84 84 84 
-0.1376 0.4545 0.0198                     114 114 114 
0.5133 0.1966 0.1795                     97 97 97 
0.1633 0.2457 -0.0416                     85 85 85 
0.0835 0.2519 0.1672                     85 85 85 
-0.0455 0.2212 0.2593                     82 82 82 
-0.1376 -0.1473 -0.0601                     170 56 56 
-0.0455 0.1905 0.4619                     151 70 70 
0.2554 -0.4298 -0.0846                     170 46 46 
0.2186 0.1782 0.1979                     96 96 96 
0.2738 0.2457 0.3391                     86 86 86 
0.3844 0.1782 0.0321                     97 97 97 
0.1203 0.1843 0.4497                     100 100 100 
0.0098 0.2089 0.4374                     71 71 71 
-0.0394 0.2150 0.3084                     81 81 81 
-0.1192 0.4668 0.2224                     102 102 102 
0.0220 0.3686 0.5234                     102 102 102 
-0.0148 0.3993 -0.0908                     111 111 111 
0.2738 0.2519 0.2347                     89 89 89 
0.0282 0.2396 0.0075                     87 87 87 
0.0589 0.2396 0.3146                     85 85 85 
-0.0762 -0.4298 -0.0723                     166 54 54 
0.3230 0.2519 0.2470                     87 87 87 
0.2677 0.2519 0.1610                     92 92 92 
-0.0639 0.3194 0.3698                     170 65 65 
0.4581 0.0308 0.4374                     156 53 53 
0.2923 0.2519 0.0873                     90 90 90 
-0.0578 0.4668 -0.0478                     132 132 132 
-0.0639 0.2212 0.1242                     86 86 86 
-0.0639 0.1536 0.0198                     98 98 98 
0.0405 0.1720 -0.0293                     99 99 99 
0.3598 0.2396 0.3760                     89 89 89 
-0.0946 0.3563 0.1303                     167 59 59 
-0.0025 0.4852 -0.0785                     111 111 111 
-0.0701 0.1352 -0.0478                     156 96 96 
0.4151 0.2396 0.2593                     86 86 86 
-0.1376 -0.1719 -0.0785                     155 39 39 
-0.0271 0.2396 0.2102                     84 84 84 
0.0036 0.2335 0.0628                     87 87 87 
-0.1069 -0.0429 0.4681                     151 42 42 
0.4458 0.1782 0.1672                     94 94 94 
-0.0455 0.3808 0.4128                     89 89 89 
0.0282 0.4423 -0.0908                     93 93 93 
-0.0762 0.4791 0.4927                     86 86 86 
-0.0946 0.4914 -0.0723                     130 130 130 
0.1879 0.2519 -0.0048                     85 85 85 
-0.0025 0.1843 0.4374                     84 84 84 
-0.1131 0.4300 0.1180                     107 107 107 
-0.0516 0.3256 0.3944                     88 88 88 
0.2493 0.1782 0.3821                     99 99 99 
0.3782 0.2519 0.2409                     86 86 86 
-0.1376 -0.2210 -0.0723                     183 45 45 
-0.1008 0.3747 0.3637                     82 82 82 
0.1940 0.2273 0.4619                     87 87 87 
-0.1131 0.4361 0.1610                     106 106 106 
0.4089 0.1659 0.4251                     152 52 52 
0.2677 0.2519 0.1487                     94 94 94 
0.2800 0.2519 0.2593                     88 88 88 
0.3230 0.1782 0.0136                     97 97 97 
0.2370 -0.4359 0.4804                     168 50 50 
0.4335 0.2396 0.2409                     86 86 86 
0.5011 -0.2701 0.4681                     170 68 68 
0.4949 -0.2087 0.4619                     160 72 72 
0.2063 0.2457 -0.0232                     85 85 85 
-0.1253 0.3931 0.0566                     101 101 101 
0.4396 0.2396 0.2347                     86 86 86 
0.3598 0.2273 -0.0232                     78 78 78 
0.1080 0.2519 0.1058                     86 86 86 
-0.1499 0.5098 0.1672                     99 101 101 
0.3967 0.1782 0.2040                     94 94 94 
0.4212 0.2150 0.3637                     105 105 105 
0.2124 0.2519 0.0136                     85 85 85 
0.3230 0.2335 -0.0355                     78 78 78 
-0.0701 0.0983 -0.0601                     166 96 96 
-0.1376 0.4238 0.0628                     106 106 106 
-0.0762 0.1966 0.2716                     80 80 80 
0.3598 0.2519 0.0996                     85 85 85 
-0.1008 0.4300 0.2654                     100 100 100 
-0.1315 -0.4114 -0.0785                     161 104 104 
-0.0946 0.4423 0.4312                     85 85 85 
-0.0639 0.4300 -0.0785                     131 131 131 
0.3537 0.2519 0.0873                     85 85 85 
-0.0271 0.4238 0.4497                     89 89 89 
-0.1192 0.4545 0.1795                     105 105 105 
-0.1069 0.3563 0.1733                     91 91 91 
-0.0148 0.2212 -0.0048                     88 88 88 
-0.0639 0.3993 0.4804                     86 86 86 
-0.0332 0.2273 0.0689                     87 87 87 
-0.0516 0.1536 0.0014                     98 98 98 
0.3291 0.1782 0.2163                     94 94 94 
-0.0148 0.3993 0.5172                     98 98 98 
-0.0885 0.1905 0.0996                     86 86 86 
0.2063 0.2519 0.1365                     91 91 91 
0.3107 0.2519 0.2777                     86 86 86 
0.2923 0.1782 -0.0355                     99 99 99 
0.4396 0.2396 0.0628                     82 82 82 
0.0712 0.2457 0.0198                     86 86 86 
0.4642 0.1782 0.0198                     92 92 92 
-0.0946 0.0492 0.4742                     144 55 55 
0.2616 0.2396 -0.0293                     83 83 83 
0.2370 0.1905 0.4742                     107 107 107 
0.2370 -0.4359 0.4865                     168 58 58 
-0.1499 -0.2701 -0.0785                     112 49 49 
0.1449 -0.4114 -0.0785                     152 64 64 
0.1510 0.1782 0.2102                     99 99 99 
0.0343 0.2273 0.4005                     82 82 82 
0.3844 0.1782 0.2900                     97 97 97 
0.2431 -0.4175 0.4927                     149 46 46 
0.2984 0.2396 0.3821                     86 86 86 
0.4642 -0.1534 -0.0662                     157 77 77 
-0.0455 0.2212 0.2654                     82 82 82 
0.4949 0.1782 0.2531                     100 100 100 
0.2800 0.2273 -0.0478                     78 78 78 
0.4642 0.1782 0.1180                     95 95 95 
-0.0394 0.3563 0.4312                     89 89 89 
0.2124 0.2519 0.1242                     91 91 91 
0.1510 0.1782 0.0136                     98 98 98 
0.3844 0.1782 -0.0293                     194 91 91 
0.1080 0.2519 0.0014                     86 86 86 
0.2984 0.1843 -0.0539                     97 97 97 
0.1879 0.1782 0.2531                     97 97 97 
-0.0332 0.1536 0.1856                     100 100 100 
-0.1131 0.4668 0.3023                     96 96 96 
0.1817 0.1782 0.1426                     97 97 97 
0.4335 0.0431 -0.0601                     178 76 76 
0.4335 0.2212 0.3453                     102 102 102 
0.4765 0.1782 0.2777                     100 100 100 
-0.0762 0.1905 0.3146                     63 63 63 
-0.1315 0.5098 0.0751                     104 104 104 
-0.1131 -0.4298 -0.0723                     146 59 59 
0.3967 0.2089 0.4005                     116 116 116 
-0.0209 0.2273 0.0198                     88 88 88 
0.0405 0.2396 0.3207                     83 83 83 
0.4704 -0.2578 -0.0785                     194 67 67 
-0.1131 0.4730 0.0321                     118 118 118 
0.4519 -0.0613 -0.0662                     195 76 76 
0.2923 0.1782 0.1733                     94 94 94 
0.2186 0.1782 0.2409                     96 96 96 
0.3414 0.1843 -0.0539                     97 97 97 
0.3168 0.2519 0.1795                     92 92 92 
0.4642 0.2150 0.0198                     64 64 64 
-0.1192 0.3808 0.2470                     92 92 92 
0.4642 0.1782 0.1795                     96 96 96 
-0.0946 0.0308 -0.0539                     193 101 101 
-0.1438 0.4914 0.0259                     116 116 116 
-0.0332 0.4361 0.4497                     89 89 89 
0.1694 0.2519 0.3453                     85 85 85 
0.4458 0.1905 0.3637                     126 126 126 
-0.0946 -0.4237 -0.0723                     143 52 52 
0.0098 0.1659 0.0014                     98 98 98 
0.1572 -0.4175 -0.0846                     156 76 76 
0.4274 0.1659 0.4190                     159 57 57 
0.2984 0.2519 0.1487                     94 94 94 
0.0528 0.3501 0.4804                     94 94 94 
-0.0824 0.1659 0.0505                     119 119 119 
0.1326 0.2519 0.0014                     86 86 86 
0.4888 0.2273 0.1058                     82 82 82 
0.1326 0.2089 0.4865                     99 99 99 
0.0098 0.4054 0.4681                     97 97 97 
-0.0025 0.2027 -0.0478                     107 107 107 
0.3782 0.1782 -0.0293                     198 117 117 
0.0896 -0.4359 0.4988                     177 101 101 
-0.1376 -0.2394 0.4988                     186 63 63 
0.1879 0.1782 0.1180                     96 96 96 
0.3537 0.1782 0.0136                     97 97 97 
0.2984 0.1782 0.4067                     99 99 99 
-0.0824 0.3317 0.0259                     166 67 67 
0.2923 0.2519 0.2347                     89 89 89 
0.2186 0.1782 0.2040                     96 96 96 
-0.0701 0.2089 0.2347                     82 82 82 
0.0159 0.2457 0.2224                     85 85 85 
0.0220 0.2396 0.2531                     85 85 85 
-0.1438 0.5098 0.0628                     103 103 103 
-0.0148 0.1598 0.3637                     100 100 100 
0.0282 0.1659 0.4128                     100 100 100 
0.4335 0.1229 0.4251                     143 50 50 
-0.1376 0.4607 0.2839                     94 94 94 
-0.1376 0.4607 0.3023                     94 94 94 
0.4581 0.2396 0.2102                     86 86 86 
0.4458 0.1782 0.2102                     94 94 94 
-0.0087 0.4545 0.4742                     96 96 96 
-0.0148 0.1598 0.0996                     100 100 100 
0.0466 0.3256 0.4742                     89 89 89 
0.1694 0.2519 0.0812                     92 92 92 
-0.0578 0.4300 0.4927                     86 86 86 
-0.0516 0.2150 0.0321                     89 89 89 
-0.0209 0.4361 0.4558                     92 92 92 
0.0835 0.1720 0.2531                     100 100 100 
0.3905 0.2335 0.3575                     89 89 89 
0.0466 0.4177 0.5049                     112 112 112 
-0.0946 0.3624 0.1979                     82 82 82 
0.2247 0.1782 0.3698                     97 97 97 
0.1572 0.1782 0.1365                     97 97 97 
-0.0885 0.1905 0.1365                     85 85 85 
0.4151 0.1352 -0.0478                     171 62 62 
0.0835 0.2089 -0.0662                     101 101 101 
-0.1069 0.4545 0.4251                     85 85 85 
-0.1560 0.4852 0.1426                     103 103 103 
-0.0209 0.1598 0.3391                     100 100 100 
-0.1253 0.4975 0.2163                     103 103 103 
0.2124 0.1782 0.2839                     97 97 97 
-0.1253 0.4914 -0.0293                     119 119 119 
-0.0824 0.3993 0.3330                     93 93 93 
0.3967 0.1720 0.4067                     162 63 63 
0.0896 -0.4237 -0.0723                     157 55 55 
-0.0271 0.1536 0.1365                     100 100 100 
-0.0148 0.1598 0.2163                     100 100 100 
0.2677 0.1782 0.1733                     94 94 94 
0.4519 0.2027 0.3514                     120 120 120 
0.3352 0.2089 0.4374                     101 101 101 
-0.0639 0.1475 0.1119                     99 99 99 
0.2247 0.1782 0.2286                     96 96 96 
0.1756 0.1782 0.0259                     97 97 97 
0.3598 0.2519 0.2286                     86 86 86 
0.1633 0.1782 0.1365                     97 97 97 
-0.0271 0.2642 0.4619                     156 52 52 
-0.0332 0.2273 0.0628                     87 87 87 
-0.0639 0.4423 -0.0416                     131 131 131 
0.1080 0.2212 0.4804                     90 90 90 
0.4151 0.2335 0.3268                     89 89 89 
-0.0332 0.2150 0.3514                     80 80 80 
-0.0332 0.2273 0.4681                     186 86 86 
0.4765 -0.3070 -0.0785                     192 74 74 
-0.1315 -0.1596 -0.0662                     182 47 47 
-0.0885 0.1413 0.1180                     101 101 101 
0.3291 0.1782 0.3883                     99 99 99 
-0.1008 0.3563 0.2961                     87 87 87 
-0.1192 0.4668 0.1242                     107 107 107 
0.3844 0.2089 -0.0355                     58 58 58 
0.2186 0.2519 0.2777                     88 88 88 
0.1264 0.2396 0.4435                     83 83 83 
0.1817 0.2519 0.2961                     87 87 87 
0.2861 0.2519 0.2102                     91 91 91 
-0.0148 0.2949 0.4927                     82 82 82 
0.2186 0.2519 0.1303                     91 91 91 
-0.0516 0.2212 0.1795                     85 85 85 
0.0159 0.3010 0.4681                     52 52 52 
-0.1438 0.5098 0.0628                     103 103 103 
-0.0578 0.3133 0.3821                     167 61 61 
0.4888 -0.1780 0.4497                     151 54 54 
-0.1008 0.1598 0.1917                     100 100 100 
-0.0762 0.2027 0.1242                     86 86 86 
-0.0824 0.1413 0.1119                     99 99 99 
0.4335 0.2457 0.2102                     86 86 86 
-0.0578 0.3194 -0.0232                     189 44 44 
0.2001 0.2457 0.3821                     85 85 85 
0.2861 0.2519 0.2654                     87 87 87 
-0.1069 0.4914 0.0014                     128 128 128 
0.1572 0.2519 0.2531                     87 87 87 
0.4335 0.1782 0.1549                     94 94 94 
0.2063 0.2457 0.3698                     85 85 85 
-0.0394 0.2949 0.4190                     172 63 63 
0.1572 0.2519 -0.0109                     86 86 86 
0.0835 0.1782 0.4681                     99 99 99 
0.1019 0.2457 -0.0171                     86 86 86 
-0.1131 0.4791 0.0321                     120 120 120 
-0.0025 0.2212 0.3883                     80 80 80 
0.1817 0.1659 0.3330                     168 45 45 
-0.1499 -0.2701 -0.0662                     186 88 88 
0.2431 0.1782 0.0873                     94 94 94 
-0.0394 0.4484 0.4558                     89 89 89 
0.1817 0.2396 0.4312                     85 85 85 
0.0773 0.2396 0.3883                     83 83 83 
0.3107 0.1782 0.0505                     96 96 96 
0.1756 0.2519 0.0443                     89 89 89 
0.4704 -0.0920 0.4681                     169 65 65 
0.4458 0.2396 0.1119                     85 85 85 
0.1572 0.1782 0.1610                     97 97 97 
0.1080 0.2519 0.0259                     86 86 86 
0.1694 0.1782 -0.0478                     99 99 99 
0.0405 0.2457 0.2102                     85 85 85 
0.2308 0.1843 0.4742                     100 100 100 
0.0528 0.1720 0.0628                     100 100 100 
0.0957 0.1720 0.2102                     100 100 100 
-0.0148 0.2212 0.3575                     81 81 81 
0.1879 0.2519 0.3637                     85 85 85 
0.3168 0.1782 0.3023                     96 96 96 
0.0405 0.1536 0.3391                     174 73 73 
-0.1008 0.4484 0.3084                     94 94 94 
0.0896 0.1782 0.4312                     100 100 100 
-0.0455 0.3624 -0.0416                     131 131 131 
0.1326 0.2519 0.0628                     86 86 86 
0.4704 -0.1227 0.4681                     158 48 48 
0.1142 0.2519 0.0873                     86 86 86 
0.4888 -0.3377 0.4681                     195 73 73 
-0.1131 -0.4237 -0.0662                     156 80 80 
-0.0885 0.3624 0.2102                     102 102 102 
0.2063 0.2335 0.4497                     86 86 86 
0.2124 0.2457 0.4128                     86 86 86 
0.4765 0.1782 0.1426                     96 96 96 
0.5133 0.1905 0.2409                     88 88 88 
0.0220 0.3931 0.4681                     98 98 98 
0.0466 0.1659 0.2900                     100 100 100 
0.2923 0.1782 0.0628                     94 94 94 
0.3045 0.1843 0.4558                     102 102 102 
0.3475 0.1782 0.1119                     94 94 94 
0.1940 0.1720 0.3453                     168 44 44 
-0.1253 0.3931 0.1303                     97 97 97 
-0.0516 0.3870 0.4927                     86 86 86 
-0.0824 0.1413 0.2163                     100 100 100 
-0.1008 0.1536 0.1672                     102 102 102 
-0.0885 0.1352 0.1426                     99 99 99 
-0.0332 0.3071 -0.0539                     130 130 130 
0.0650 0.1782 0.4742                     99 99 99 
-0.0394 0.2027 -0.0048                     92 92 92 
0.4704 -0.1903 0.4742                     153 57 57 
-0.0025 0.1843 0.4435                     83 83 83 
0.3967 0.2457 0.2777                     86 86 86 
-0.0762 -0.4175 -0.0723                     156 56 56 
0.3967 0.2457 0.2409                     86 86 86 
0.2677 0.1782 0.1549                     94 94 94 
0.1142 -0.4359 -0.0723                     174 87 87 
0.3660 0.2212 0.4067                     97 97 97 
-0.1008 0.1782 0.1672                     89 89 89 
-0.1008 0.4791 0.3575                     89 89 89 
-0.0946 0.1782 0.2286                     89 89 89 
-0.1438 0.4484 0.1917                     100 100 100 
0.3414 0.1782 0.0689                     94 94 94 
0.0773 0.2150 0.4742                     78 78 78 
0.4396 0.1782 0.0075                     98 98 98 
0.0405 0.1659 0.1733                     100 100 100 
0.4519 0.2396 0.1917                     86 86 86 
0.1756 0.2519 0.2839                     88 88 88 
-0.0087 0.2212 0.3698                     81 81 81 
-0.0271 0.2027 0.4619                     195 62 62 
-0.0025 0.3071 -0.0601                     114 114 114 
0.0405 0.2457 0.0996                     86 86 86 
-0.0762 0.3808 0.3453                     92 92 92 
0.2247 0.2089 -0.0662                     89 89 89 
0.1817 0.1782 0.2839                     97 97 97 
0.4458 0.1843 -0.0048                     86 86 86 
-0.1376 0.4545 0.2716                     96 96 96 
-0.0209 0.4791 0.4742                     88 88 88 
-0.0639 0.1413 0.2409                     100 100 100 
-0.1253 0.4668 0.3821                     83 83 83 
-0.0087 0.3993 0.4619                     95 95 95 
0.2308 0.1782 0.4005                     100 100 100 
-0.1376 0.4484 0.2531                     97 97 97 
-0.0148 0.4668 0.4742                     94 94 94 
0.2063 0.2027 0.4804                     101 101 101 
0.0098 0.1536 -0.0109                     157 63 63 
-0.0394 0.2949 0.4374                     101 101 101 
-0.0087 0.2273 0.0198                     87 87 87 
-0.0455 0.1475 0.1610                     100 100 100 
0.0159 0.1659 0.1610                     100 100 100 
-0.1253 -0.1043 -0.0601                     176 67 67 
0.0159 0.4668 -0.0723                     124 124 124 
-0.0394 0.2703 0.4374                     194 79 79 
0.2001 0.2519 0.2654                     89 89 89 
0.3414 0.2212 0.4251                     95 95 95 
-0.0332 0.4914 -0.0662                     132 132 132 
0.4765 0.2273 0.0566                     78 78 78 
0.3598 0.1782 0.3514                     99 99 99 
-0.0394 0.3379 0.4251                     89 89 89 
0.2554 0.1782 0.4005                     100 100 100 
-0.0394 0.1966 -0.0232                     107 107 107 
0.1019 0.1720 0.1549                     100 100 100 
0.4274 0.2457 0.0873                     83 83 83 
0.0036 0.3931 0.4619                     97 97 97 
0.4151 0.2396 0.3207                     88 88 88 
-0.0762 0.4238 -0.0109                     132 132 132 
0.0957 0.1720 0.2224                     100 100 100 
0.2738 -0.4175 -0.0785                     150 50 50 
0.4826 -0.2333 0.4742                     155 48 48 
0.2001 0.2519 0.3391                     85 85 85 
0.3230 0.2396 0.3883                     87 87 87 
0.1633 0.2519 0.1119                     91 91 91 
0.1449 0.2519 0.2286                     87 87 87 
-0.0762 0.2089 0.1610                     85 85 85 
-0.1069 0.4545 0.2900                     97 97 97 
0.0220 0.1659 0.2531                     100 100 100 
0.2247 0.2519 0.0505                     88 88 88 
-0.0332 0.2273 0.0505                     88 88 88 
-0.0455 0.2212 0.0751                     87 87 87 
-0.0332 0.2150 0.0075                     89 89 89 
0.1817 0.2457 -0.0416                     85 85 85 
-0.0455 0.2212 0.2654                     82 82 82 
